-0.1562497615814209 1.0000000000000000 0.3437500000000000
-0.2187497615814209 1.0000000000000000 0.3437500000000000
-0.1562497615814209 1.0000000000000000 0.0312500000000000
-0.1562497615814209 1.0000000000000000 0.0937500000000000
-0.2187497615814209 1.0000000000000000 0.0937500000000000
-0.4062498211860657 0.9999998807907104 0.7812500000000000
-0.4062498509883881 0.9999998807907104 0.8437500000000000
-0.4687498807907104 0.9999998807907104 0.8437500000000000
-0.1562497913837433 0.9999998807907104 0.7812500000000000
-0.1562497913837433 0.9999998807907104 0.8437500000000000
-0.2187498211860657 0.9999998807907104 0.8437500000000000
-0.1562497913837433 0.9999998807907104 0.5312500000000000
-0.1562497913837433 0.9999998807907104 0.5937500000000000
-0.2187497913837433 0.9999998807907104 0.5937500000000000
-0.9062498807907104 1.0000000000000000 0.7812500000000000
-0.9062498807907104 1.0000000000000000 0.8437500000000000
-0.9687498807907104 1.0000000000000000 0.8437500000000000
-0.6562498807907104 1.0000000000000000 0.7812500000000000
-0.6562498807907104 1.0000000000000000 0.8437500000000000
-0.7187498807907104 1.0000000000000000 0.8437500000000000
-0.6562498807907104 1.0000000000000000 0.5312500000000000
-0.6562498807907104 1.0000000000000000 0.5937500000000000
-0.7187498807907104 1.0000000000000000 0.5937500000000000
0.5937502384185791 0.9999997615814209 0.2812500000000000
0.5937502384185791 0.9999997615814209 0.3437500000000000
0.5312502384185791 0.9999997615814209 0.3437500000000000
0.8437502384185791 0.9999997019767761 0.2812500000000000
0.8437502384185791 0.9999996423721313 0.3437500000000000
0.7812502384185791 0.9999997019767761 0.3437500000000000
0.8437502384185791 0.9999997615814209 0.0312500000000000
0.8437502384185791 0.9999997615814209 0.0937500000000000
0.7812502384185791 0.9999997615814209 0.0937500000000000
0.5937503576278687 0.9999996423721313 0.7812500000000000
0.5937503576278687 0.9999996423721313 0.8437500000000000
0.5312503576278687 0.9999996423721313 0.8437500000000000
0.8437504768371582 0.9999995827674866 0.7812500000000000
0.8437504768371582 0.9999995231628418 0.8437500000000000
0.7812504768371582 0.9999995827674866 0.8437500000000000
0.8437503576278687 0.9999996423721313 0.5312500000000000
0.8437503576278687 0.9999996423721313 0.5937500000000000
0.7812503576278687 0.9999996423721313 0.5937500000000000
0.0937502607703209 0.9999997615814209 0.7812500000000000
0.0937502607703209 0.9999997615814209 0.8437500000000000
0.0312502458691597 0.9999997615814209 0.8437500000000000
0.3437502980232239 0.9999997615814209 0.7812500000000000
0.3437502980232239 0.9999997615814209 0.8437500000000000
0.2812502980232239 0.9999997615814209 0.8437500000000000
0.3437502980232239 0.9999997615814209 0.5312500000000000
0.3437502980232239 0.9999997615814209 0.5937500000000000
0.2812502980232239 0.9999997615814209 0.5937500000000000
0.5937501192092896 0.9999998807907104 -0.7187500000000000
0.5937501192092896 0.9999998807907104 -0.6562500000000000
0.5312501192092896 0.9999998807907104 -0.6562500000000000
0.8437500000000000 0.9999998807907104 -0.7187500000000000
0.8437500596046448 0.9999998807907104 -0.6562500000000000
0.7812501192092896 0.9999998807907104 -0.6562500000000000
0.8437500000000000 1.0000000000000000 -0.9687500000000000
0.8437500000000000 0.9999998807907104 -0.9062500000000000
0.7812500000000000 1.0000000000000000 -0.9062500000000000
0.5937502384185791 0.9999998807907104 -0.2187500000000000
0.5937502384185791 0.9999998807907104 -0.1562500000000000
0.5312502384185791 0.9999998807907104 -0.1562500000000000
0.8437502384185791 0.9999997615814209 -0.2187500000000000
0.8437502384185791 0.9999997615814209 -0.1562500000000000
0.7812502384185791 0.9999997615814209 -0.1562500000000000
0.8437501192092896 0.9999998807907104 -0.4687500000000000
0.8437502384185791 0.9999998807907104 -0.4062500000000000
0.7812501192092896 0.9999998807907104 -0.4062500000000000
0.0937502384185791 1.0000000000000000 -0.2187500000000000
0.0937502384185791 1.0000000000000000 -0.1562500000000000
0.0312502346932888 1.0000000000000000 -0.1562500000000000
0.3437502384185791 0.9999998807907104 -0.2187500000000000
0.3437502384185791 0.9999998807907104 -0.1562500000000000
0.2812502384185791 0.9999998807907104 -0.1562500000000000
0.3437501788139343 0.9999998807907104 -0.4687500000000000
0.3437502384185791 0.9999998807907104 -0.4062500000000000
0.2812501788139343 0.9999998807907104 -0.4062500000000000
-0.9999998807907104 0.4062502384185791 -0.2812500000000000
-0.9999998807907104 0.4062502384185791 -0.3437500000000000
-0.9999998807907104 0.4687502384185791 -0.3437500000000000
-1.0000000000000000 0.1562502384185791 -0.2812500000000000
-0.9999999403953552 0.1562502384185791 -0.3437500000000000
-0.9999998807907104 0.2187502384185791 -0.3437500000000000
-1.0000000000000000 0.1562502384185791 -0.0312500000000000
-1.0000000000000000 0.1562502384185791 -0.0937500000000000
-1.0000000000000000 0.2187502384185791 -0.0937500000000000
-0.9999997615814209 0.4062502384185791 -0.7812500000000000
-0.9999997615814209 0.4062502384185791 -0.8437500000000000
-0.9999997615814209 0.4687502384185791 -0.8437500000000000
-0.9999998807907104 0.1562502682209015 -0.7812500000000000
-0.9999998807907104 0.1562502682209015 -0.8437500000000000
-0.9999998807907104 0.2187502533197403 -0.8437500000000000
-0.9999998807907104 0.1562502533197403 -0.5312500000000000
-0.9999998807907104 0.1562502682209015 -0.5937500000000000
-0.9999998807907104 0.2187502384185791 -0.5937500000000000
-0.9999996423721313 0.9062502384185791 -0.7812500000000000
-0.9999996423721313 0.9062502384185791 -0.8437500000000000
-0.9999996423721313 0.9687502384185791 -0.8437500000000000
-0.9999997615814209 0.6562502384185791 -0.7812500000000000
-0.9999997615814209 0.6562502384185791 -0.8437500000000000
-0.9999997615814209 0.7187502384185791 -0.8437500000000000
-0.9999997615814209 0.6562502384185791 -0.5312500000000000
-0.9999997615814209 0.6562502384185791 -0.5937500000000000
-0.9999997615814209 0.7187502384185791 -0.5937500000000000
-1.0000002384185791 -0.5937497615814209 -0.2812500000000000
-1.0000002384185791 -0.5937497615814209 -0.3437500000000000
-1.0000002384185791 -0.5312497615814209 -0.3437500000000000
-1.0000002384185791 -0.8437497615814209 -0.2812500000000000
-1.0000002384185791 -0.8437497615814209 -0.3437500000000000
-1.0000002384185791 -0.7812497615814209 -0.3437500000000000
-1.0000002384185791 -0.8437497615814209 -0.0312500000000000
-1.0000002384185791 -0.8437497615814209 -0.0937500000000000
-1.0000002384185791 -0.7812497615814209 -0.0937500000000000
-1.0000000000000000 -0.5937497615814209 -0.7812500000000000
-1.0000000000000000 -0.5937497615814209 -0.8437500000000000
-1.0000000000000000 -0.5312497615814209 -0.8437500000000000
-1.0000002384185791 -0.8437497615814209 -0.7812500000000000
-1.0000001192092896 -0.8437497615814209 -0.8437500000000000
-1.0000000000000000 -0.7812497615814209 -0.8437500000000000
-1.0000002384185791 -0.8437497615814209 -0.5312500000000000
-1.0000002384185791 -0.8437497615814209 -0.5937500000000000
-1.0000002384185791 -0.7812497615814209 -0.5937500000000000
-0.9999998807907104 -0.0937497243285179 -0.7812500000000000
-0.9999998807907104 -0.0937497168779373 -0.8437500000000000
-0.9999998807907104 -0.0312497131526470 -0.8437500000000000
-1.0000000000000000 -0.3437497615814209 -0.7812500000000000
-1.0000000000000000 -0.3437497615814209 -0.8437500000000000
-1.0000000000000000 -0.2812497615814209 -0.8437500000000000
-1.0000000000000000 -0.3437497615814209 -0.5312500000000000
-1.0000000000000000 -0.3437497615814209 -0.5937500000000000
-1.0000000000000000 -0.2812497615814209 -0.5937500000000000
-1.0000002384185791 -0.5937497615814209 0.7187500000000000
-1.0000002384185791 -0.5937497615814209 0.6562500000000000
-1.0000002384185791 -0.5312497615814209 0.6562500000000000
-1.0000002384185791 -0.8437496423721313 0.7187500000000000
-1.0000002384185791 -0.8437497019767761 0.6562500000000000
-1.0000002384185791 -0.7812497615814209 0.6562500000000000
-1.0000002384185791 -0.8437496423721313 0.9687500000000000
-1.0000002384185791 -0.8437496423721313 0.9062500000000000
-1.0000002384185791 -0.7812496423721313 0.9062500000000000
-1.0000002384185791 -0.5937497615814209 0.2187500000000000
-1.0000002384185791 -0.5937497615814209 0.1562500000000000
-1.0000002384185791 -0.5312497615814209 0.1562500000000000
-1.0000002384185791 -0.8437497615814209 0.2187500000000000
-1.0000002384185791 -0.8437497615814209 0.1562500000000000
-1.0000002384185791 -0.7812497615814209 0.1562500000000000
-1.0000002384185791 -0.8437497615814209 0.4687500000000000
-1.0000002384185791 -0.8437497615814209 0.4062500000000000
-1.0000002384185791 -0.7812497615814209 0.4062500000000000
-1.0000000000000000 -0.0937497615814209 0.2187500000000000
-1.0000000000000000 -0.0937497615814209 0.1562500000000000
-1.0000000000000000 -0.0312497690320015 0.1562500000000000
-1.0000000000000000 -0.3437497615814209 0.2187500000000000
-1.0000000000000000 -0.3437497615814209 0.1562500000000000
-1.0000000000000000 -0.2812497615814209 0.1562500000000000
-1.0000000000000000 -0.3437497615814209 0.4687500000000000
-1.0000000000000000 -0.3437497615814209 0.4062500000000000
-1.0000000000000000 -0.2812497615814209 0.4062500000000000
-0.4062502384185791 -0.9999998807907104 -0.2812500000000000
-0.4062502384185791 -0.9999998807907104 -0.3437500000000000
-0.4687502384185791 -0.9999998807907104 -0.3437500000000000
-0.1562502235174179 -1.0000000000000000 -0.2812500000000000
-0.1562502086162567 -0.9999999403953552 -0.3437500000000000
-0.2187502384185791 -0.9999998807907104 -0.3437500000000000
-0.1562502682209015 -1.0000000000000000 -0.0312500000000000
-0.1562502384185791 -1.0000000000000000 -0.0937500000000000
-0.2187502384185791 -1.0000000000000000 -0.0937500000000000
-0.4062501192092896 -0.9999998807907104 -0.7812500000000000
-0.4062501192092896 -0.9999998807907104 -0.8437500000000000
-0.4687501192092896 -0.9999998807907104 -0.8437500000000000
-0.1562500894069672 -0.9999998807907104 -0.7812500000000000
-0.1562500745058060 -0.9999998807907104 -0.8437500000000000
-0.2187500596046448 -0.9999998807907104 -0.8437500000000000
-0.1562501788139343 -0.9999998807907104 -0.5312500000000000
-0.1562501639127731 -0.9999998807907104 -0.5937500000000000
-0.2187501788139343 -0.9999998807907104 -0.5937500000000000
-0.9062502384185791 -0.9999997615814209 -0.7812500000000000
-0.9062502384185791 -0.9999997615814209 -0.8437500000000000
-0.9687502384185791 -0.9999997615814209 -0.8437500000000000
-0.6562501192092896 -0.9999998807907104 -0.7812500000000000
-0.6562501192092896 -0.9999998807907104 -0.8437500000000000
-0.7187501192092896 -0.9999998807907104 -0.8437500000000000
-0.6562502384185791 -0.9999998807907104 -0.5312500000000000
-0.6562502384185791 -0.9999998807907104 -0.5937500000000000
-0.7187502384185791 -0.9999998807907104 -0.5937500000000000
0.5937497615814209 -1.0000000000000000 -0.2812500000000000
0.5937497615814209 -1.0000000000000000 -0.3437500000000000
0.5312497615814209 -1.0000000000000000 -0.3437500000000000
0.8437497615814209 -1.0000002384185791 -0.2812500000000000
0.8437497615814209 -1.0000001192092896 -0.3437500000000000
0.7812497615814209 -1.0000000000000000 -0.3437500000000000
0.8437496423721313 -1.0000002384185791 -0.0312500000000000
0.8437496423721313 -1.0000002384185791 -0.0937500000000000
0.7812496423721313 -1.0000002384185791 -0.0937500000000000
0.5937498807907104 -1.0000000000000000 -0.7812500000000000
0.5937498807907104 -1.0000000000000000 -0.8437500000000000
0.5312498807907104 -1.0000000000000000 -0.8437500000000000
0.8437498807907104 -1.0000000000000000 -0.7812500000000000
0.8437498807907104 -1.0000000000000000 -0.8437500000000000
0.7812498807907104 -1.0000000000000000 -0.8437500000000000
0.8437498807907104 -1.0000000000000000 -0.5312500000000000
0.8437498807907104 -1.0000000000000000 -0.5937500000000000
0.7812498807907104 -1.0000000000000000 -0.5937500000000000
0.0937499254941940 -0.9999998807907104 -0.7812500000000000
0.0937499478459358 -0.9999998807907104 -0.8437500000000000
0.0312499515712261 -0.9999998807907104 -0.8437500000000000
0.3437499403953552 -1.0000000000000000 -0.7812500000000000
0.3437499403953552 -0.9999999403953552 -0.8437500000000000
0.2812499403953552 -0.9999998807907104 -0.8437500000000000
0.3437498211860657 -1.0000000000000000 -0.5312500000000000
0.3437498807907104 -1.0000000000000000 -0.5937500000000000
0.2812498807907104 -1.0000000000000000 -0.5937500000000000
0.5937494039535522 -1.0000002384185791 0.7187500000000000
0.5937495231628418 -1.0000002384185791 0.6562500000000000
0.5312495231628418 -1.0000002384185791 0.6562500000000000
0.8437494039535522 -1.0000004768371582 0.7187500000000000
0.8437494039535522 -1.0000004768371582 0.6562500000000000
0.7812494039535522 -1.0000004768371582 0.6562500000000000
0.8437494039535522 -1.0000004768371582 0.9687500000000000
0.8437494039535522 -1.0000004768371582 0.9062500000000000
0.7812494039535522 -1.0000004768371582 0.9062500000000000
0.5937496423721313 -1.0000002384185791 0.2187500000000000
0.5937496423721313 -1.0000002384185791 0.1562500000000000
0.5312496423721313 -1.0000002384185791 0.1562500000000000
0.8437496423721313 -1.0000002384185791 0.2187500000000000
0.8437496423721313 -1.0000002384185791 0.1562500000000000
0.7812496423721313 -1.0000002384185791 0.1562500000000000
0.8437495231628418 -1.0000004768371582 0.4687500000000000
0.8437495231628418 -1.0000003576278687 0.4062500000000000
0.7812495231628418 -1.0000002384185791 0.4062500000000000
0.0937496423721313 -1.0000000000000000 0.2187500000000000
0.0937496572732925 -1.0000000000000000 0.1562500000000000
0.0312496628612280 -1.0000000000000000 0.1562500000000000
0.3437496423721313 -1.0000002384185791 0.2187500000000000
0.3437496423721313 -1.0000001192092896 0.1562500000000000
0.2812496423721313 -1.0000000000000000 0.1562500000000000
0.3437495827674866 -1.0000002384185791 0.4687500000000000
0.3437495827674866 -1.0000002384185791 0.4062500000000000
0.2812495827674866 -1.0000002384185791 0.4062500000000000
0.9999998807907104 -0.4062501788139343 -0.2812500000000000
0.9999998807907104 -0.4062501490116119 -0.3437500000000000
0.9999998807907104 -0.4687501192092896 -0.3437500000000000
0.9999998807907104 -0.1562502086162567 -0.2812500000000000
0.9999998807907104 -0.1562501937150955 -0.3437500000000000
0.9999998807907104 -0.2187501788139343 -0.3437500000000000
0.9999998807907104 -0.1562502682209015 -0.0312500000000000
0.9999998807907104 -0.1562502533197403 -0.0937500000000000
0.9999998807907104 -0.2187502384185791 -0.0937500000000000
1.0000000000000000 -0.4062500596046448 -0.7812500000000000
1.0000000000000000 -0.4062500298023224 -0.8437500000000000
1.0000000000000000 -0.4687500000000000 -0.8437500000000000
1.0000000000000000 -0.1562500894069672 -0.7812500000000000
1.0000000000000000 -0.1562500745058060 -0.8437500000000000
1.0000000000000000 -0.2187500596046448 -0.8437500000000000
1.0000000000000000 -0.1562501490116119 -0.5312500000000000
1.0000000000000000 -0.1562501341104507 -0.5937500000000000
1.0000000000000000 -0.2187501192092896 -0.5937500000000000
0.9999998807907104 -0.9062500000000000 -0.7812500000000000
0.9999998807907104 -0.9062500000000000 -0.8437500000000000
0.9999998807907104 -0.9687500000000000 -0.8437500000000000
0.9999998807907104 -0.6562500000000000 -0.7812500000000000
1.0000000000000000 -0.6562500000000000 -0.8437500000000000
0.9999998807907104 -0.7187500000000000 -0.8437500000000000
0.9999998807907104 -0.6562501192092896 -0.5312500000000000
0.9999998807907104 -0.6562501192092896 -0.5937500000000000
0.9999998807907104 -0.7187501192092896 -0.5937500000000000
1.0000000000000000 0.5937497615814209 -0.2812500000000000
1.0000000000000000 0.5937497615814209 -0.3437500000000000
1.0000000000000000 0.5312497615814209 -0.3437500000000000
1.0000002384185791 0.8437497615814209 -0.2812500000000000
1.0000001192092896 0.8437497615814209 -0.3437500000000000
1.0000000000000000 0.7812497615814209 -0.3437500000000000
1.0000002384185791 0.8437497615814209 -0.0312500000000000
1.0000002384185791 0.8437497615814209 -0.0937500000000000
1.0000002384185791 0.7812497615814209 -0.0937500000000000
1.0000000000000000 0.5937498807907104 -0.7812500000000000
1.0000000000000000 0.5937498807907104 -0.8437500000000000
1.0000000000000000 0.5312498807907104 -0.8437500000000000
1.0000000000000000 0.8437498807907104 -0.7812500000000000
1.0000000000000000 0.8437498807907104 -0.8437500000000000
1.0000000000000000 0.7812498807907104 -0.8437500000000000
1.0000000000000000 0.8437498807907104 -0.5312500000000000
1.0000000000000000 0.8437498807907104 -0.5937500000000000
1.0000000000000000 0.7812498807907104 -0.5937500000000000
1.0000000000000000 0.0937498882412910 -0.7812500000000000
1.0000000000000000 0.0937499031424522 -0.8437500000000000
1.0000000000000000 0.0312499031424522 -0.8437500000000000
1.0000000000000000 0.3437498807907104 -0.7812500000000000
1.0000000000000000 0.3437498807907104 -0.8437500000000000
1.0000000000000000 0.2812498807907104 -0.8437500000000000
1.0000000000000000 0.3437498211860657 -0.5312500000000000
1.0000000000000000 0.3437498211860657 -0.5937500000000000
1.0000000000000000 0.2812498211860657 -0.5937500000000000
1.0000002384185791 0.5937495231628418 0.7187500000000000
1.0000002384185791 0.5937495231628418 0.6562500000000000
1.0000002384185791 0.5312495231628418 0.6562500000000000
1.0000004768371582 0.8437495231628418 0.7187500000000000
1.0000003576278687 0.8437495231628418 0.6562500000000000
1.0000002384185791 0.7812495231628418 0.6562500000000000
1.0000004768371582 0.8437495231628418 0.9687500000000000
1.0000004768371582 0.8437495231628418 0.9062500000000000
1.0000004768371582 0.7812495231628418 0.9062500000000000
1.0000002384185791 0.5937496423721313 0.2187500000000000
1.0000002384185791 0.5937496423721313 0.1562500000000000
1.0000002384185791 0.5312496423721313 0.1562500000000000
1.0000002384185791 0.8437496423721313 0.2187500000000000
1.0000002384185791 0.8437496423721313 0.1562500000000000
1.0000002384185791 0.7812496423721313 0.1562500000000000
1.0000002384185791 0.8437496423721313 0.4687500000000000
1.0000002384185791 0.8437496423721313 0.4062500000000000
1.0000002384185791 0.7812496423721313 0.4062500000000000
0.9999998807907104 0.0937496498227119 0.2187500000000000
0.9999998807907104 0.0937496647238731 0.1562500000000000
0.9999998807907104 0.0312496647238731 0.1562500000000000
1.0000000000000000 0.3437496423721313 0.2187500000000000
1.0000000000000000 0.3437496423721313 0.1562500000000000
1.0000000000000000 0.2812496423721313 0.1562500000000000
1.0000000000000000 0.3437495827674866 0.4687500000000000
1.0000000000000000 0.3437495827674866 0.4062500000000000
1.0000000000000000 0.2812495827674866 0.4062500000000000
0.2812497019767761 -0.4062502384185791 1.0000000000000000
0.3437497019767761 -0.4062502980232239 1.0000000000000000
0.3437496423721313 -0.4687502384185791 1.0000000000000000
0.2812498211860657 -0.1562502682209015 1.0000000000000000
0.3437498211860657 -0.1562502831220627 1.0000000000000000
0.3437497615814209 -0.2187502980232239 1.0000000000000000
0.0312497913837433 -0.1562501788139343 1.0000000000000000
0.0937497913837433 -0.1562501788139343 1.0000000000000000
0.0937497615814209 -0.2187501788139343 1.0000000000000000
0.7812496423721313 -0.4062504768371582 1.0000000000000000
0.8437496423721313 -0.4062504768371582 1.0000000000000000
0.8437496423721313 -0.4687504768371582 1.0000000000000000
0.7812497615814209 -0.1562504470348358 1.0000000000000000
0.8437497615814209 -0.1562504768371582 1.0000000000000000
0.8437497615814209 -0.2187504768371582 1.0000000000000000
0.5312497615814209 -0.1562503725290298 1.0000000000000000
0.5937497615814209 -0.1562503874301910 1.0000000000000000
0.5937497615814209 -0.2187504172325134 1.0000000000000000
0.7812494039535522 -0.9062504768371582 1.0000000000000000
0.8437494039535522 -0.9062504768371582 1.0000000000000000
0.8437494039535522 -0.9687504768371582 1.0000000000000000
0.7812495231628418 -0.6562504768371582 1.0000000000000000
0.8437495231628418 -0.6562504768371582 1.0000000000000000
0.8437495231628418 -0.7187504768371582 1.0000000000000000
0.5312495231628418 -0.6562503576278687 1.0000000000000000
0.5937495231628418 -0.6562503576278687 1.0000000000000000
0.5937495231628418 -0.7187503576278687 1.0000000000000000
0.2812501192092896 0.5937496423721313 1.0000000000000000
0.3437501192092896 0.5937496423721313 1.0000000000000000
0.3437500894069672 0.5312496423721313 1.0000000000000000
0.2812502384185791 0.8437496423721313 1.0000000000000000
0.3437502384185791 0.8437496423721313 1.0000000000000000
0.3437502086162567 0.7812496423721313 1.0000000000000000
0.0312501788139343 0.8437497615814209 1.0000000000000000
0.0937501862645149 0.8437497615814209 1.0000000000000000
0.0937501639127731 0.7812497615814209 1.0000000000000000
0.7812502384185791 0.5937495231628418 1.0000000000000000
0.8437502384185791 0.5937495231628418 1.0000000000000000
0.8437502384185791 0.5312495231628418 1.0000000000000000
0.7812503576278687 0.8437495231628418 1.0000000000000000
0.8437503576278687 0.8437495231628418 1.0000000000000000
0.8437503576278687 0.7812495231628418 1.0000000000000000
0.5312502384185791 0.8437496423721313 1.0000000000000000
0.5937502384185791 0.8437496423721313 1.0000000000000000
0.5937502384185791 0.7812496423721313 1.0000000000000000
0.7812498807907104 0.0937495380640030 1.0000000000000000
0.8437498807907104 0.0937495231628418 1.0000000000000000
0.8437498807907104 0.0312495194375515 1.0000000000000000
0.7812501192092896 0.3437495231628418 1.0000000000000000
0.8437501192092896 0.3437495231628418 1.0000000000000000
0.8437500000000000 0.2812495231628418 1.0000000000000000
0.5312500000000000 0.3437496423721313 1.0000000000000000
0.5937500000000000 0.3437495827674866 1.0000000000000000
0.5937500000000000 0.2812495827674866 1.0000000000000000
-0.7187500000000000 0.5937500000000000 1.0000000000000000
-0.6562500000000000 0.5937500000000000 1.0000000000000000
-0.6562500000000000 0.5312500000000000 1.0000000000000000
-0.7187498807907104 0.8437500000000000 1.0000000000000000
-0.6562498807907104 0.8437498807907104 1.0000000000000000
-0.6562498807907104 0.7812500000000000 1.0000000000000000
-0.9687500000000000 0.8437500000000000 1.0000000000000000
-0.9062500000000000 0.8437500000000000 1.0000000000000000
-0.9062500000000000 0.7812500000000000 1.0000000000000000
-0.2187499403953552 0.5937498807907104 1.0000000000000000
-0.1562499403953552 0.5937498807907104 1.0000000000000000
-0.1562499701976776 0.5312498807907104 1.0000000000000000
-0.2187498658895493 0.8437498807907104 1.0000000000000000
-0.1562498509883881 0.8437497615814209 1.0000000000000000
-0.1562498807907104 0.7812498807907104 1.0000000000000000
-0.4687499105930328 0.8437498807907104 1.0000000000000000
-0.4062498807907104 0.8437498807907104 1.0000000000000000
-0.4062499105930328 0.7812498807907104 1.0000000000000000
-0.2187501043081284 0.0937498956918716 1.0000000000000000
-0.1562501043081284 0.0937498658895493 1.0000000000000000
-0.1562501192092896 0.0312498752027750 1.0000000000000000
-0.2187500149011612 0.3437498807907104 1.0000000000000000
-0.1562500149011612 0.3437498211860657 1.0000000000000000
-0.1562500447034836 0.2812498509883881 1.0000000000000000
-0.4687500000000000 0.3437499403953552 1.0000000000000000
-0.4062500298023224 0.3437499403953552 1.0000000000000000
-0.4062500596046448 0.2812499403953552 1.0000000000000000
-0.4062498807907104 0.2812501788139343 -1.0000000000000000
-0.4062498807907104 0.3437502086162567 -1.0000000000000000
-0.4687498807907104 0.3437502384185791 -1.0000000000000000
-0.1562498807907104 0.2812501788139343 -1.0000000000000000
-0.1562498807907104 0.3437501788139343 -1.0000000000000000
-0.2187498807907104 0.3437501788139343 -1.0000000000000000
-0.1562499105930328 0.0312501452863216 -1.0000000000000000
-0.1562499105930328 0.0937501490116119 -1.0000000000000000
-0.2187499105930328 0.0937501564621925 -1.0000000000000000
-0.4062497615814209 0.7812502384185791 -1.0000000000000000
-0.4062497615814209 0.8437502384185791 -1.0000000000000000
-0.4687497615814209 0.8437502384185791 -1.0000000000000000
-0.1562498211860657 0.7812501192092896 -1.0000000000000000
-0.1562498211860657 0.8437501788139343 -1.0000000000000000
-0.2187497913837433 0.8437502384185791 -1.0000000000000000
-0.1562498509883881 0.5312501192092896 -1.0000000000000000
-0.1562498509883881 0.5937501192092896 -1.0000000000000000
-0.2187498360872269 0.5937501192092896 -1.0000000000000000
-0.9062497615814209 0.7812503576278687 -1.0000000000000000
-0.9062497019767761 0.8437503576278687 -1.0000000000000000
-0.9687496423721313 0.8437503576278687 -1.0000000000000000
-0.6562497615814209 0.7812502384185791 -1.0000000000000000
-0.6562497615814209 0.8437502384185791 -1.0000000000000000
-0.7187497615814209 0.8437502384185791 -1.0000000000000000
-0.6562497615814209 0.5312502384185791 -1.0000000000000000
-0.6562497615814209 0.5937502384185791 -1.0000000000000000
-0.7187497615814209 0.5937502384185791 -1.0000000000000000
0.5937500000000000 0.2812500000000000 -1.0000000000000000
0.5937500000000000 0.3437500000000000 -1.0000000000000000
0.5312500000000000 0.3437500000000000 -1.0000000000000000
0.8437500000000000 0.2812499403953552 -1.0000000000000000
0.8437500000000000 0.3437499403953552 -1.0000000000000000
0.7812500000000000 0.3437499403953552 -1.0000000000000000
0.8437500000000000 0.0312499664723873 -1.0000000000000000
0.8437500000000000 0.0937499627470970 -1.0000000000000000
0.7812500000000000 0.0937499701976776 -1.0000000000000000
0.5937501192092896 0.7812500000000000 -1.0000000000000000
0.5937501192092896 0.8437500000000000 -1.0000000000000000
0.5312501192092896 0.8437500000000000 -1.0000000000000000
0.8437500000000000 0.7812500000000000 -1.0000000000000000
0.8437500000000000 0.8437500000000000 -1.0000000000000000
0.7812500000000000 0.8437500000000000 -1.0000000000000000
0.8437500000000000 0.5312500000000000 -1.0000000000000000
0.8437500000000000 0.5937500000000000 -1.0000000000000000
0.7812500000000000 0.5937500000000000 -1.0000000000000000
0.0937501490116119 0.7812501192092896 -1.0000000000000000
0.0937501490116119 0.8437501192092896 -1.0000000000000000
0.0312501564621925 0.8437501192092896 -1.0000000000000000
0.3437501192092896 0.7812500000000000 -1.0000000000000000
0.3437501192092896 0.8437500000000000 -1.0000000000000000
0.2812501192092896 0.8437500000000000 -1.0000000000000000
0.3437500596046448 0.5312500000000000 -1.0000000000000000
0.3437501192092896 0.5937500000000000 -1.0000000000000000
0.2812501192092896 0.5937500000000000 -1.0000000000000000
0.5937500000000000 -0.7187500000000000 -1.0000000000000000
0.5937500000000000 -0.6562500000000000 -1.0000000000000000
0.5312500000000000 -0.6562500000000000 -1.0000000000000000
0.8437500000000000 -0.7187500000000000 -1.0000000000000000
0.8437500000000000 -0.6562500000000000 -1.0000000000000000
0.7812500000000000 -0.6562500000000000 -1.0000000000000000
0.8437500000000000 -0.9687500000000000 -1.0000000000000000
0.8437500000000000 -0.9062500000000000 -1.0000000000000000
0.7812500000000000 -0.9062500000000000 -1.0000000000000000
0.5937500000000000 -0.2187499701976776 -1.0000000000000000
0.5937500000000000 -0.1562499701976776 -1.0000000000000000
0.5312500000000000 -0.1562499701976776 -1.0000000000000000
0.8437500000000000 -0.2187500000000000 -1.0000000000000000
0.8437500000000000 -0.1562500149011612 -1.0000000000000000
0.7812500000000000 -0.1562500000000000 -1.0000000000000000
0.8437500000000000 -0.4687500000000000 -1.0000000000000000
0.8437500000000000 -0.4062500000000000 -1.0000000000000000
0.7812500000000000 -0.4062500000000000 -1.0000000000000000
0.0937500298023224 -0.2187498807907104 -1.0000000000000000
0.0937500372529030 -0.1562498807907104 -1.0000000000000000
0.0312500484287739 -0.1562498807907104 -1.0000000000000000
0.3437500000000000 -0.2187499403953552 -1.0000000000000000
0.3437500000000000 -0.1562499403953552 -1.0000000000000000
0.2812500000000000 -0.1562499105930328 -1.0000000000000000
0.3437500000000000 -0.4687499403953552 -1.0000000000000000
0.3437500000000000 -0.4062499403953552 -1.0000000000000000
0.2812500000000000 -0.4062499403953552 -1.0000000000000000
0.0937500000000000 -0.7187498807907104 -1.0000000000000000
0.0937500074505806 -0.6562498807907104 -1.0000000000000000
0.0312500186264515 -0.6562498807907104 -1.0000000000000000
0.3437500000000000 -0.7187498807907104 -1.0000000000000000
0.3437500000000000 -0.6562498807907104 -1.0000000000000000
0.2812500000000000 -0.6562498807907104 -1.0000000000000000
0.3437500000000000 -0.9687498807907104 -1.0000000000000000
0.3437500000000000 -0.9062498807907104 -1.0000000000000000
0.2812500000000000 -0.9062498807907104 -1.0000000000000000
0.0937500894069672 0.2812501192092896 -1.0000000000000000
0.0937500894069672 0.3437501192092896 -1.0000000000000000
0.0312500968575478 0.3437501192092896 -1.0000000000000000
0.3437500596046448 0.2812500596046448 -1.0000000000000000
0.3437500596046448 0.3437500596046448 -1.0000000000000000
0.2812500596046448 0.3437500596046448 -1.0000000000000000
0.3437500000000000 0.0312500521540642 -1.0000000000000000
0.3437500298023224 0.0937500447034836 -1.0000000000000000
0.2812500596046448 0.0937500596046448 -1.0000000000000000
-0.9062498807907104 0.2812502980232239 -1.0000000000000000
-0.9062497615814209 0.3437502980232239 -1.0000000000000000
-0.9687497615814209 0.3437502980232239 -1.0000000000000000
-0.6562498807907104 0.2812502384185791 -1.0000000000000000
-0.6562498807907104 0.3437502384185791 -1.0000000000000000
-0.7187498807907104 0.3437502384185791 -1.0000000000000000
-0.6562498807907104 0.0312502309679985 -1.0000000000000000
-0.6562498807907104 0.0937502309679985 -1.0000000000000000
-0.7187498807907104 0.0937502384185791 -1.0000000000000000
-0.7187501192092896 0.0937500670552254 1.0000000000000000
-0.6562501192092896 0.0937500447034836 1.0000000000000000
-0.6562501192092896 0.0312500521540642 1.0000000000000000
-0.7187500000000000 0.3437500000000000 1.0000000000000000
-0.6562500000000000 0.3437500000000000 1.0000000000000000
-0.6562500000000000 0.2812500000000000 1.0000000000000000
-0.9687500000000000 0.3437501192092896 1.0000000000000000
-0.9062500000000000 0.3437501192092896 1.0000000000000000
-0.9062500000000000 0.2812501192092896 1.0000000000000000
0.2812499105930328 0.0937497168779373 1.0000000000000000
0.3437499105930328 0.0937496870756149 1.0000000000000000
0.3437498807907104 0.0312496963888407 1.0000000000000000
0.2812500000000000 0.3437497019767761 1.0000000000000000
0.3437500298023224 0.3437497019767761 1.0000000000000000
0.3437500000000000 0.2812497019767761 1.0000000000000000
0.0312499850988388 0.3437497615814209 1.0000000000000000
0.0937499850988388 0.3437497615814209 1.0000000000000000
0.0937499552965164 0.2812497615814209 1.0000000000000000
0.2812494635581970 -0.9062502384185791 1.0000000000000000
0.3437494635581970 -0.9062502384185791 1.0000000000000000
0.3437494039535522 -0.9687502384185791 1.0000000000000000
0.2812495827674866 -0.6562502384185791 1.0000000000000000
0.3437495827674866 -0.6562502384185791 1.0000000000000000
0.3437495231628418 -0.7187502384185791 1.0000000000000000
0.0312495976686478 -0.6562501192092896 1.0000000000000000
0.0937495976686478 -0.6562501192092896 1.0000000000000000
0.0937495678663254 -0.7187501192092896 1.0000000000000000
0.9999998807907104 0.0937495306134224 0.7187500000000000
0.9999998807907104 0.0937495455145836 0.6562500000000000
0.9999998807907104 0.0312495455145836 0.6562500000000000
1.0000000000000000 0.3437495231628418 0.7187500000000000
1.0000000000000000 0.3437495231628418 0.6562500000000000
1.0000000000000000 0.2812495231628418 0.6562500000000000
1.0000000000000000 0.3437494635581970 0.9687500000000000
1.0000000000000000 0.3437494635581970 0.9062500000000000
1.0000000000000000 0.2812494635581970 0.9062500000000000
1.0000000000000000 0.0937497690320015 -0.2812500000000000
1.0000000000000000 0.0937497839331627 -0.3437500000000000
1.0000000000000000 0.0312497839331627 -0.3437500000000000
1.0000000000000000 0.3437497615814209 -0.2812500000000000
1.0000000000000000 0.3437497615814209 -0.3437500000000000
1.0000000000000000 0.2812497615814209 -0.3437500000000000
1.0000000000000000 0.3437497019767761 -0.0312500000000000
1.0000000000000000 0.3437497019767761 -0.0937500000000000
1.0000000000000000 0.2812497019767761 -0.0937500000000000
0.9999997615814209 -0.9062502384185791 -0.2812500000000000
0.9999997615814209 -0.9062502384185791 -0.3437500000000000
0.9999997615814209 -0.9687502384185791 -0.3437500000000000
0.9999997615814209 -0.6562502384185791 -0.2812500000000000
0.9999998807907104 -0.6562501192092896 -0.3437500000000000
0.9999997615814209 -0.7187502384185791 -0.3437500000000000
0.9999997615814209 -0.6562502384185791 -0.0312500000000000
0.9999997615814209 -0.6562502384185791 -0.0937500000000000
0.9999997615814209 -0.7187502384185791 -0.0937500000000000
0.0937495231628418 -1.0000000000000000 0.7187500000000000
0.0937495380640030 -1.0000000000000000 0.6562500000000000
0.0312495417892933 -1.0000000000000000 0.6562500000000000
0.3437494635581970 -1.0000002384185791 0.7187500000000000
0.3437495231628418 -1.0000002384185791 0.6562500000000000
0.2812495231628418 -1.0000002384185791 0.6562500000000000
0.3437494039535522 -1.0000002384185791 0.9687500000000000
0.3437494635581970 -1.0000002384185791 0.9062500000000000
0.2812494635581970 -1.0000002384185791 0.9062500000000000
0.0937497764825821 -1.0000000000000000 -0.2812500000000000
0.0937497988343239 -1.0000000000000000 -0.3437500000000000
0.0312498025596142 -1.0000000000000000 -0.3437500000000000
0.3437497615814209 -1.0000000000000000 -0.2812500000000000
0.3437497615814209 -1.0000000000000000 -0.3437500000000000
0.2812497615814209 -1.0000000000000000 -0.3437500000000000
0.3437497019767761 -1.0000000000000000 -0.0312500000000000
0.3437497019767761 -1.0000000000000000 -0.0937500000000000
0.2812497019767761 -1.0000000000000000 -0.0937500000000000
-0.9062502384185791 -0.9999997615814209 -0.2812500000000000
-0.9062502384185791 -0.9999997615814209 -0.3437500000000000
-0.9687502384185791 -0.9999997615814209 -0.3437500000000000
-0.6562502384185791 -0.9999998807907104 -0.2812500000000000
-0.6562502384185791 -0.9999998807907104 -0.3437500000000000
-0.7187502384185791 -0.9999998807907104 -0.3437500000000000
-0.6562502384185791 -0.9999998807907104 -0.0312500000000000
-0.6562502384185791 -0.9999998807907104 -0.0937500000000000
-0.7187502384185791 -0.9999998807907104 -0.0937500000000000
-1.0000000000000000 -0.0937497913837433 0.7187500000000000
-1.0000000000000000 -0.0937497913837433 0.6562500000000000
-1.0000000000000000 -0.0312497988343239 0.6562500000000000
-1.0000002384185791 -0.3437497615814209 0.7187500000000000
-1.0000001192092896 -0.3437497615814209 0.6562500000000000
-1.0000000000000000 -0.2812497615814209 0.6562500000000000
-1.0000002384185791 -0.3437497615814209 0.9687500000000000
-1.0000002384185791 -0.3437497615814209 0.9062500000000000
-1.0000002384185791 -0.2812497615814209 0.9062500000000000
-1.0000000000000000 -0.0937497541308403 -0.2812500000000000
-1.0000000000000000 -0.0937497466802597 -0.3437500000000000
-1.0000000000000000 -0.0312497429549694 -0.3437500000000000
-1.0000000000000000 -0.3437497615814209 -0.2812500000000000
-1.0000000000000000 -0.3437497615814209 -0.3437500000000000
-1.0000000000000000 -0.2812497615814209 -0.3437500000000000
-1.0000000000000000 -0.3437497615814209 -0.0312500000000000
-1.0000000000000000 -0.3437497615814209 -0.0937500000000000
-1.0000000000000000 -0.2812497615814209 -0.0937500000000000
-0.9999997615814209 0.9062502384185791 -0.2812500000000000
-0.9999997615814209 0.9062502384185791 -0.3437500000000000
-0.9999997615814209 0.9687502384185791 -0.3437500000000000
-0.9999998807907104 0.6562502384185791 -0.2812500000000000
-0.9999998211860657 0.6562502384185791 -0.3437500000000000
-0.9999997615814209 0.7187502384185791 -0.3437500000000000
-0.9999998807907104 0.6562502384185791 -0.0312500000000000
-0.9999998807907104 0.6562502384185791 -0.0937500000000000
-0.9999998807907104 0.7187502384185791 -0.0937500000000000
0.0937501788139343 1.0000000000000000 -0.7187500000000000
0.0937501862645149 1.0000000000000000 -0.6562500000000000
0.0312501974403858 1.0000000000000000 -0.6562500000000000
0.3437501192092896 1.0000000000000000 -0.7187500000000000
0.3437501490116119 1.0000000000000000 -0.6562500000000000
0.2812501788139343 1.0000000000000000 -0.6562500000000000
0.3437501192092896 1.0000000000000000 -0.9687500000000000
0.3437501192092896 1.0000000000000000 -0.9062500000000000
0.2812501192092896 1.0000000000000000 -0.9062500000000000
0.0937502384185791 0.9999998807907104 0.2812500000000000
0.0937502384185791 0.9999998807907104 0.3437500000000000
0.0312502384185791 0.9999998807907104 0.3437500000000000
0.3437502384185791 0.9999998807907104 0.2812500000000000
0.3437502384185791 0.9999998807907104 0.3437500000000000
0.2812502384185791 0.9999998807907104 0.3437500000000000
0.3437502384185791 0.9999998807907104 0.0312500000000000
0.3437502384185791 0.9999998807907104 0.0937500000000000
0.2812502384185791 0.9999998807907104 0.0937500000000000
-0.9062497615814209 1.0000002384185791 0.2812500000000000
-0.9062498807907104 1.0000002384185791 0.3437500000000000
-0.9687498807907104 1.0000002384185791 0.3437500000000000
-0.6562497615814209 1.0000000000000000 0.2812500000000000
-0.6562497615814209 1.0000000000000000 0.3437500000000000
-0.7187497615814209 1.0000000000000000 0.3437500000000000
-0.6562497615814209 1.0000002384185791 0.0312500000000000
-0.6562497615814209 1.0000002384185791 0.0937500000000000
-0.7187497615814209 1.0000002384185791 0.0937500000000000
-0.9062496423721313 1.0000002384185791 -0.7187500000000000
-0.9062496423721313 1.0000002384185791 -0.6562500000000000
-0.9687496423721313 1.0000002384185791 -0.6562500000000000
-0.6562497019767761 1.0000002384185791 -0.7187500000000000
-0.6562497019767761 1.0000002384185791 -0.6562500000000000
-0.7187497019767761 1.0000002384185791 -0.6562500000000000
-0.6562497019767761 1.0000002384185791 -0.9687500000000000
-0.6562497019767761 1.0000002384185791 -0.9062500000000000
-0.7187497019767761 1.0000002384185791 -0.9062500000000000
-0.9999998807907104 0.9062500000000000 0.7187500000000000
-0.9999998807907104 0.9062500000000000 0.6562500000000000
-0.9999998807907104 0.9687500000000000 0.6562500000000000
-1.0000000000000000 0.6562501192092896 0.7187500000000000
-0.9999999403953552 0.6562501192092896 0.6562500000000000
-0.9999998807907104 0.7187501192092896 0.6562500000000000
-1.0000000000000000 0.6562501192092896 0.9687500000000000
-1.0000000000000000 0.6562501192092896 0.9062500000000000
-1.0000000000000000 0.7187501192092896 0.9062500000000000
-0.9062502384185791 -0.9999996423721313 0.7187500000000000
-0.9062502384185791 -0.9999996423721313 0.6562500000000000
-0.9687502384185791 -0.9999996423721313 0.6562500000000000
-0.6562503576278687 -0.9999997615814209 0.7187500000000000
-0.6562503576278687 -0.9999997615814209 0.6562500000000000
-0.7187503576278687 -0.9999997615814209 0.6562500000000000
-0.6562504768371582 -0.9999997615814209 0.9687500000000000
-0.6562504172325134 -0.9999997615814209 0.9062500000000000
-0.7187503576278687 -0.9999997615814209 0.9062500000000000
0.9999994635581970 -0.9062504768371582 0.7187500000000000
0.9999995231628418 -0.9062504768371582 0.6562500000000000
0.9999994635581970 -0.9687504768371582 0.6562500000000000
0.9999995827674866 -0.6562504768371582 0.7187500000000000
0.9999996423721313 -0.6562504768371582 0.6562500000000000
0.9999995827674866 -0.7187504768371582 0.6562500000000000
0.9999995231628418 -0.6562505960464478 0.9687500000000000
0.9999995231628418 -0.6562504768371582 0.9062500000000000
0.9999995231628418 -0.7187505960464478 0.9062500000000000
-0.7187503576278687 -0.9062497615814209 1.0000000000000000
-0.6562504172325134 -0.9062497615814209 1.0000000000000000
-0.6562504768371582 -0.9687497615814209 1.0000000000000000
-0.7187503576278687 -0.6562497615814209 1.0000000000000000
-0.6562503576278687 -0.6562498807907104 1.0000000000000000
-0.6562503576278687 -0.7187497615814209 1.0000000000000000
-0.9687502384185791 -0.6562497615814209 1.0000000000000000
-0.9062502384185791 -0.6562497615814209 1.0000000000000000
-0.9062502384185791 -0.7187497615814209 1.0000000000000000
-0.9062500000000000 -0.7187497615814209 -1.0000000000000000
-0.9062500000000000 -0.6562497615814209 -1.0000000000000000
-0.9687500000000000 -0.6562497615814209 -1.0000000000000000
-0.6562500000000000 -0.7187498807907104 -1.0000000000000000
-0.6562500000000000 -0.6562498807907104 -1.0000000000000000
-0.7187500000000000 -0.6562498807907104 -1.0000000000000000
-0.6562501192092896 -0.9687498807907104 -1.0000000000000000
-0.6562500000000000 -0.9062498807907104 -1.0000000000000000
-0.7187501192092896 -0.9062498807907104 -1.0000000000000000
-0.6562500000000000 -0.8437498807907104 -1.0000000000000000
-0.6562500000000000 -0.7812498807907104 -1.0000000000000000
-0.7187500000000000 -0.7812498807907104 -1.0000000000000000
-0.5312500000000000 -0.8437498807907104 -1.0000000000000000
-0.5312500000000000 -0.7812498807907104 -1.0000000000000000
-0.5937500000000000 -0.7812498807907104 -1.0000000000000000
-0.5312500000000000 -0.9687498807907104 -1.0000000000000000
-0.5312500000000000 -0.9062498807907104 -1.0000000000000000
-0.5937500000000000 -0.9062498807907104 -1.0000000000000000
-0.6562500000000000 -0.5937498807907104 -1.0000000000000000
-0.6562500000000000 -0.5312498807907104 -1.0000000000000000
-0.7187500000000000 -0.5312498807907104 -1.0000000000000000
-0.5312500000000000 -0.5937498807907104 -1.0000000000000000
-0.5312500000000000 -0.5312498807907104 -1.0000000000000000
-0.5937500000000000 -0.5312498807907104 -1.0000000000000000
-0.5312500000000000 -0.7187498807907104 -1.0000000000000000
-0.5312500000000000 -0.6562498807907104 -1.0000000000000000
-0.5937500000000000 -0.6562498807907104 -1.0000000000000000
-0.9062500000000000 -0.5937497615814209 -1.0000000000000000
-0.9062500000000000 -0.5312497615814209 -1.0000000000000000
-0.9687500000000000 -0.5312497615814209 -1.0000000000000000
-0.7812500000000000 -0.5937497615814209 -1.0000000000000000
-0.7812500000000000 -0.5312497615814209 -1.0000000000000000
-0.8437500000000000 -0.5312497615814209 -1.0000000000000000
-0.7812500000000000 -0.7187497615814209 -1.0000000000000000
-0.7812500000000000 -0.6562497615814209 -1.0000000000000000
-0.8437500000000000 -0.6562497615814209 -1.0000000000000000
-0.8437502384185791 -0.6562497615814209 1.0000000000000000
-0.7812502980232239 -0.6562497615814209 1.0000000000000000
-0.7812503576278687 -0.7187497615814209 1.0000000000000000
-0.8437502384185791 -0.5312497615814209 1.0000000000000000
-0.7812502384185791 -0.5312497615814209 1.0000000000000000
-0.7812502384185791 -0.5937497615814209 1.0000000000000000
-0.9687502384185791 -0.5312497615814209 1.0000000000000000
-0.9062502384185791 -0.5312497615814209 1.0000000000000000
-0.9062502384185791 -0.5937497615814209 1.0000000000000000
-0.5937503576278687 -0.6562498807907104 1.0000000000000000
-0.5312503576278687 -0.6562498807907104 1.0000000000000000
-0.5312503576278687 -0.7187498807907104 1.0000000000000000
-0.5937502384185791 -0.5312498807907104 1.0000000000000000
-0.5312502980232239 -0.5312498807907104 1.0000000000000000
-0.5312503576278687 -0.5937498807907104 1.0000000000000000
-0.7187502384185791 -0.5312497615814209 1.0000000000000000
-0.6562502384185791 -0.5312498807907104 1.0000000000000000
-0.6562502384185791 -0.5937498807907104 1.0000000000000000
-0.5937504768371582 -0.9062498807907104 1.0000000000000000
-0.5312504768371582 -0.9062498807907104 1.0000000000000000
-0.5312504768371582 -0.9687498807907104 1.0000000000000000
-0.5937503576278687 -0.7812498807907104 1.0000000000000000
-0.5312503576278687 -0.7812498807907104 1.0000000000000000
-0.5312503576278687 -0.8437498807907104 1.0000000000000000
-0.7187503576278687 -0.7812497615814209 1.0000000000000000
-0.6562503576278687 -0.7812497615814209 1.0000000000000000
-0.6562503576278687 -0.8437497615814209 1.0000000000000000
0.9999995231628418 -0.6562504768371582 0.8437500000000000
0.9999995231628418 -0.6562504768371582 0.7812500000000000
0.9999995231628418 -0.7187504768371582 0.7812500000000000
0.9999996423721313 -0.5312504768371582 0.8437500000000000
0.9999996423721313 -0.5312504768371582 0.7812500000000000
0.9999996423721313 -0.5937504768371582 0.7812500000000000
0.9999996423721313 -0.5312504768371582 0.9687500000000000
0.9999996423721313 -0.5312504768371582 0.9062500000000000
0.9999996423721313 -0.5937504768371582 0.9062500000000000
0.9999996423721313 -0.6562504768371582 0.5937500000000000
0.9999996423721313 -0.6562504768371582 0.5312500000000000
0.9999996423721313 -0.7187504768371582 0.5312500000000000
0.9999996423721313 -0.5312504768371582 0.5937500000000000
0.9999996423721313 -0.5312504768371582 0.5312500000000000
0.9999996423721313 -0.5937504768371582 0.5312500000000000
0.9999996423721313 -0.5312504768371582 0.7187500000000000
0.9999996423721313 -0.5312504768371582 0.6562500000000000
0.9999996423721313 -0.5937504768371582 0.6562500000000000
0.9999995231628418 -0.9062504768371582 0.5937500000000000
0.9999995231628418 -0.9062504768371582 0.5312500000000000
0.9999995231628418 -0.9687504768371582 0.5312500000000000
0.9999995827674866 -0.7812504768371582 0.5937500000000000
0.9999996423721313 -0.7812504768371582 0.5312500000000000
0.9999995827674866 -0.8437504768371582 0.5312500000000000
0.9999995231628418 -0.7812504768371582 0.7187500000000000
0.9999995231628418 -0.7812504768371582 0.6562500000000000
0.9999995231628418 -0.8437504768371582 0.6562500000000000
-0.6562503576278687 -0.9999997615814209 0.8437500000000000
-0.6562503576278687 -0.9999997615814209 0.7812500000000000
-0.7187503576278687 -0.9999997615814209 0.7812500000000000
-0.5312504768371582 -0.9999998807907104 0.8437500000000000
-0.5312504172325134 -0.9999998807907104 0.7812500000000000
-0.5937503576278687 -0.9999998807907104 0.7812500000000000
-0.5312504768371582 -0.9999998807907104 0.9687500000000000
-0.5312504768371582 -0.9999998807907104 0.9062500000000000
-0.5937504768371582 -0.9999998807907104 0.9062500000000000
-0.6562503576278687 -0.9999997615814209 0.5937500000000000
-0.6562503576278687 -0.9999997615814209 0.5312500000000000
-0.7187503576278687 -0.9999997615814209 0.5312500000000000
-0.5312503576278687 -0.9999998807907104 0.5937500000000000
-0.5312503576278687 -0.9999998807907104 0.5312500000000000
-0.5937503576278687 -0.9999998807907104 0.5312500000000000
-0.5312503576278687 -0.9999998807907104 0.7187500000000000
-0.5312503576278687 -0.9999998807907104 0.6562500000000000
-0.5937503576278687 -0.9999998807907104 0.6562500000000000
-0.9062502384185791 -0.9999997019767761 0.5937500000000000
-0.9062502384185791 -0.9999997615814209 0.5312500000000000
-0.9687502384185791 -0.9999997019767761 0.5312500000000000
-0.7812503576278687 -0.9999997615814209 0.5937500000000000
-0.7812502980232239 -0.9999997615814209 0.5312500000000000
-0.8437502384185791 -0.9999997615814209 0.5312500000000000
-0.7812503576278687 -0.9999997615814209 0.7187500000000000
-0.7812503576278687 -0.9999997615814209 0.6562500000000000
-0.8437503576278687 -0.9999997615814209 0.6562500000000000
-1.0000000000000000 0.6562501192092896 0.8437500000000000
-1.0000000000000000 0.6562501192092896 0.7812500000000000
-1.0000000000000000 0.7187501192092896 0.7812500000000000
-1.0000000000000000 0.5312501192092896 0.8437500000000000
-1.0000000000000000 0.5312501192092896 0.7812500000000000
-1.0000000000000000 0.5937501192092896 0.7812500000000000
-1.0000000000000000 0.5312501192092896 0.9687500000000000
-1.0000000000000000 0.5312501192092896 0.9062500000000000
-1.0000000000000000 0.5937501192092896 0.9062500000000000
-0.9999998807907104 0.6562501192092896 0.5937500000000000
-0.9999998807907104 0.6562501192092896 0.5312500000000000
-0.9999998807907104 0.7187501192092896 0.5312500000000000
-1.0000000000000000 0.5312501192092896 0.5937500000000000
-0.9999999403953552 0.5312501192092896 0.5312500000000000
