-1.000000 -0.375000 -0.531250 
-1.000000 -0.375000 -0.500000 
-1.000000 -0.281250 -0.531250 
-1.000000 -0.281250 -0.562500 
-1.000000 -0.250000 -0.531250 
-1.000000 -0.250000 -0.562500 
-1.000000 -0.281250 -0.500000 
-1.000000 -0.250000 -0.500000 
-1.000000 -0.281250 -0.593750 
-1.000000 -0.281250 -0.625000 
-1.000000 -0.250000 -0.593750 
-1.000000 -0.250000 -0.625000 
-1.000000 -0.562500 0.687500 
-1.000000 -0.562500 0.656250 
-1.000000 -0.593750 0.656250 
-1.000000 -0.593750 0.687500 
-1.000000 -0.625000 0.656250 
-1.000000 -0.625000 0.687500 
-1.000000 -0.562500 0.625000 
-1.000000 -0.593750 0.625000 
-1.000000 -0.625000 0.625000 
-1.000000 -0.593750 0.718750 
-1.000000 -0.562500 0.718750 
-1.000000 -0.593750 0.750000 
-1.000000 -0.562500 0.750000 
-1.000000 -0.625000 0.718750 
-1.000000 -0.625000 0.750000 
-1.000000 -0.531250 0.718750 
-1.000000 -0.531250 0.687500 
-1.000000 -0.500000 0.718750 
-1.000000 -0.500000 0.687500 
-1.000000 -0.531250 0.750000 
-1.000000 -0.500000 0.750000 
-1.000000 -0.531250 0.656250 
-1.000000 -0.531250 0.625000 
-1.000000 -0.500000 0.656250 
-1.000000 -0.500000 0.625000 
-1.000000 -0.812500 0.687500 
-1.000000 -0.812500 0.656250 
-1.000000 -0.843750 0.656250 
-1.000000 -0.843750 0.687500 
-1.000000 -0.875000 0.656250 
-1.000000 -0.875000 0.687500 
-1.000000 -0.812500 0.625000 
-1.000000 -0.843750 0.625000 
-1.000000 -0.875000 0.625000 
-1.000000 -0.843750 0.718750 
-1.000000 -0.812500 0.718750 
-1.000000 -0.843750 0.750000 
-1.000000 -0.812500 0.750000 
-1.000000 -0.875000 0.718750 
-1.000000 -0.875000 0.750000 
-1.000000 -0.781250 0.718750 
-1.000000 -0.781250 0.687500 
-1.000000 -0.750000 0.718750 
-1.000000 -0.750000 0.687500 
-1.000000 -0.781250 0.750000 
-1.000000 -0.750000 0.750000 
-1.000000 -0.781250 0.656250 
-1.000000 -0.781250 0.625000 
-1.000000 -0.750000 0.656250 
-1.000000 -0.750000 0.625000 
-0.998047 -0.812500 0.935547 
-1.000000 -0.812500 0.906250 
-1.000000 -0.843750 0.906250 
-0.998047 -0.843750 0.935547 
-1.000000 -0.875000 0.906250 
-0.998047 -0.875000 0.935547 
-1.000000 -0.812500 0.906250 
-1.000000 -0.812500 0.875000 
-1.000000 -0.843750 0.875000 
-1.000000 -0.843750 0.906250 
-1.000000 -0.875000 0.875000 
-1.000000 -0.875000 0.906250 
-0.998047 -0.812500 0.935547 
-0.998047 -0.843750 0.935547 
-0.992188 -0.843750 0.960938 
-0.992188 -0.812500 0.960938 
-0.992188 -0.812500 0.960938 
-0.992188 -0.843750 0.960938 
-0.980469 -0.843750 0.980469 
-0.980469 -0.812500 0.980469 
-0.998047 -0.843750 0.935547 
-0.998047 -0.875000 0.935547 
-0.992188 -0.875000 0.960938 
-0.992188 -0.843750 0.960938 
-0.992188 -0.875000 0.960938 
-0.980469 -0.875000 0.980469 
-0.998047 -0.812500 0.935547 
-0.992188 -0.812500 0.960938 
-0.992188 -0.781250 0.960938 
-0.998047 -0.781250 0.935547 
-0.998047 -0.781250 0.935547 
-0.992188 -0.781250 0.960938 
-0.992188 -0.750000 0.960938 
-0.998047 -0.750000 0.935547 
-0.980469 -0.781250 0.980469 
-0.992188 -0.781250 0.960938 
-0.980469 -0.750000 0.980469 
-0.992188 -0.750000 0.960938 
-0.998047 -0.781250 0.935547 
-1.000000 -0.781250 0.906250 
-1.000000 -0.781250 0.906250 
-1.000000 -0.781250 0.875000 
-0.998047 -0.750000 0.935547 
-1.000000 -0.750000 0.906250 
-1.000000 -0.750000 0.906250 
-1.000000 -0.750000 0.875000 
-1.000000 -0.562500 0.187500 
-1.000000 -0.562500 0.156250 
-1.000000 -0.593750 0.156250 
-1.000000 -0.593750 0.187500 
-1.000000 -0.593750 0.187500 
-1.000000 -0.593750 0.156250 
-1.000000 -0.625000 0.156250 
-1.000000 -0.625000 0.187500 
-1.000000 -0.562500 0.125000 
-1.000000 -0.593750 0.125000 
-1.000000 -0.593750 0.125000 
-1.000000 -0.625000 0.125000 
-1.000000 -0.562500 0.187500 
-1.000000 -0.593750 0.187500 
-1.000000 -0.593750 0.218750 
-1.000000 -0.562500 0.218750 
-1.000000 -0.562500 0.218750 
-1.000000 -0.593750 0.218750 
-1.000000 -0.593750 0.250000 
-1.000000 -0.562500 0.250000 
-1.000000 -0.625000 0.218750 
-1.000000 -0.593750 0.218750 
-1.000000 -0.625000 0.250000 
-1.000000 -0.593750 0.250000 
-1.000000 -0.531250 0.218750 
-1.000000 -0.531250 0.187500 
-1.000000 -0.531250 0.187500 
-1.000000 -0.531250 0.218750 
-1.000000 -0.500000 0.218750 
-1.000000 -0.500000 0.187500 
-1.000000 -0.531250 0.250000 
-1.000000 -0.531250 0.218750 
-1.000000 -0.531250 0.250000 
-1.000000 -0.500000 0.250000 
-1.000000 -0.562500 0.187500 
-1.000000 -0.531250 0.156250 
-1.000000 -0.562500 0.156250 
-1.000000 -0.531250 0.125000 
-1.000000 -0.562500 0.125000 
-1.000000 -0.500000 0.156250 
-1.000000 -0.500000 0.125000 
-1.000000 -0.812500 0.187500 
-1.000000 -0.812500 0.156250 
-1.000000 -0.843750 0.156250 
-1.000000 -0.843750 0.187500 
-1.000000 -0.875000 0.156250 
-1.000000 -0.875000 0.187500 
-1.000000 -0.812500 0.125000 
-1.000000 -0.843750 0.125000 
-1.000000 -0.875000 0.125000 
-1.000000 -0.843750 0.218750 
-1.000000 -0.812500 0.218750 
-1.000000 -0.843750 0.250000 
-1.000000 -0.812500 0.250000 
-1.000000 -0.875000 0.218750 
-1.000000 -0.875000 0.250000 
-1.000000 -0.781250 0.218750 
-1.000000 -0.781250 0.187500 
-1.000000 -0.750000 0.218750 
-1.000000 -0.750000 0.187500 
-1.000000 -0.781250 0.250000 
-1.000000 -0.750000 0.250000 
-1.000000 -0.781250 0.156250 
-1.000000 -0.781250 0.125000 
-1.000000 -0.750000 0.156250 
-1.000000 -0.750000 0.125000 
-1.000000 -0.812500 0.437500 
-1.000000 -0.812500 0.406250 
-1.000000 -0.843750 0.406250 
-1.000000 -0.843750 0.437500 
-1.000000 -0.875000 0.406250 
-1.000000 -0.875000 0.437500 
-1.000000 -0.812500 0.375000 
-1.000000 -0.843750 0.375000 
-1.000000 -0.875000 0.375000 
-1.000000 -0.843750 0.468750 
-1.000000 -0.812500 0.468750 
-1.000000 -0.843750 0.500000 
-1.000000 -0.812500 0.500000 
-1.000000 -0.875000 0.468750 
-1.000000 -0.875000 0.500000 
-1.000000 -0.781250 0.468750 
-1.000000 -0.781250 0.437500 
-1.000000 -0.750000 0.468750 
-1.000000 -0.750000 0.437500 
-1.000000 -0.781250 0.500000 
-1.000000 -0.750000 0.500000 
-1.000000 -0.781250 0.406250 
-1.000000 -0.781250 0.375000 
-1.000000 -0.750000 0.406250 
-1.000000 -0.750000 0.375000 
-1.000000 -0.062500 0.187500 
-1.000000 -0.062500 0.156250 
-1.000000 -0.093750 0.156250 
-1.000000 -0.093750 0.187500 
-1.000000 -0.125000 0.156250 
-1.000000 -0.125000 0.187500 
-1.000000 -0.062500 0.125000 
-1.000000 -0.093750 0.125000 
-1.000000 -0.125000 0.125000 
-1.000000 -0.093750 0.218750 
-1.000000 -0.062500 0.218750 
-1.000000 -0.093750 0.250000 
-1.000000 -0.062500 0.250000 
-1.000000 -0.125000 0.218750 
-1.000000 -0.125000 0.250000 
-1.000000 -0.031250 0.218750 
-1.000000 -0.031250 0.187500 
-1.000000 0.000000 0.218750 
-1.000000 0.000000 0.187500 
-1.000000 -0.031250 0.250000 
-1.000000 0.000000 0.250000 
-1.000000 -0.031250 0.156250 
-1.000000 -0.031250 0.125000 
-1.000000 0.000000 0.156250 
-1.000000 0.000000 0.125000 
-1.000000 -0.312500 0.187500 
-1.000000 -0.312500 0.156250 
-1.000000 -0.343750 0.156250 
-1.000000 -0.343750 0.187500 
-1.000000 -0.375000 0.156250 
-1.000000 -0.375000 0.187500 
-1.000000 -0.312500 0.125000 
-1.000000 -0.343750 0.125000 
-1.000000 -0.375000 0.125000 
-1.000000 -0.343750 0.218750 
-1.000000 -0.312500 0.218750 
-1.000000 -0.343750 0.250000 
-1.000000 -0.312500 0.250000 
-1.000000 -0.375000 0.218750 
-1.000000 -0.375000 0.250000 
-1.000000 -0.281250 0.218750 
-1.000000 -0.281250 0.187500 
-1.000000 -0.250000 0.218750 
-1.000000 -0.250000 0.187500 
-1.000000 -0.281250 0.250000 
-1.000000 -0.250000 0.250000 
-1.000000 -0.281250 0.156250 
-1.000000 -0.281250 0.125000 
-1.000000 -0.250000 0.156250 
-1.000000 -0.250000 0.125000 
-1.000000 -0.312500 0.437500 
-1.000000 -0.312500 0.406250 
-1.000000 -0.343750 0.406250 
-1.000000 -0.343750 0.437500 
-1.000000 -0.375000 0.406250 
-1.000000 -0.375000 0.437500 
-1.000000 -0.312500 0.375000 
-1.000000 -0.343750 0.375000 
-1.000000 -0.375000 0.375000 
-1.000000 -0.343750 0.468750 
-1.000000 -0.312500 0.468750 
-1.000000 -0.343750 0.500000 
-1.000000 -0.312500 0.500000 
-1.000000 -0.375000 0.468750 
-1.000000 -0.375000 0.500000 
-1.000000 -0.281250 0.468750 
-1.000000 -0.281250 0.437500 
-1.000000 -0.250000 0.468750 
-1.000000 -0.250000 0.437500 
-1.000000 -0.281250 0.500000 
-1.000000 -0.250000 0.500000 
-1.000000 -0.281250 0.406250 
-1.000000 -0.281250 0.375000 
-1.000000 -0.250000 0.406250 
-1.000000 -0.250000 0.375000 
-0.437500 -1.000000 -0.312500 
-0.437500 -1.000000 -0.343750 
-0.406250 -1.000000 -0.343750 
-0.406250 -1.000000 -0.312500 
-0.375000 -1.000000 -0.343750 
-0.375000 -1.000000 -0.312500 
-0.437500 -1.000000 -0.375000 
-0.406250 -1.000000 -0.375000 
-0.375000 -1.000000 -0.375000 
-0.406250 -1.000000 -0.281250 
-0.437500 -1.000000 -0.281250 
-0.406250 -1.000000 -0.250000 
-0.437500 -1.000000 -0.250000 
-0.375000 -1.000000 -0.281250 
-0.375000 -1.000000 -0.250000 
-0.468750 -1.000000 -0.281250 
-0.468750 -1.000000 -0.312500 
-0.500000 -1.000000 -0.281250 
-0.500000 -1.000000 -0.312500 
-0.468750 -1.000000 -0.250000 
-0.500000 -1.000000 -0.250000 
-0.468750 -1.000000 -0.343750 
-0.468750 -1.000000 -0.375000 
-0.500000 -1.000000 -0.343750 
-0.500000 -1.000000 -0.375000 
-0.187500 -1.000000 -0.312500 
-0.187500 -1.000000 -0.343750 
-0.156250 -1.000000 -0.343750 
-0.156250 -1.000000 -0.312500 
-0.125000 -1.000000 -0.343750 
-0.125000 -1.000000 -0.312500 
-0.187500 -1.000000 -0.343750 
-0.187500 -1.000000 -0.375000 
-0.156250 -1.000000 -0.375000 
-0.156250 -1.000000 -0.343750 
-0.156250 -1.000000 -0.375000 
-0.125000 -1.000000 -0.375000 
-0.156250 -1.000000 -0.281250 
-0.187500 -1.000000 -0.281250 
-0.156250 -1.000000 -0.250000 
-0.187500 -1.000000 -0.250000 
-0.125000 -1.000000 -0.281250 
-0.125000 -1.000000 -0.250000 
-0.187500 -1.000000 -0.312500 
-0.187500 -1.000000 -0.281250 
-0.218750 -1.000000 -0.281250 
-0.218750 -1.000000 -0.312500 
-0.218750 -1.000000 -0.312500 
-0.218750 -1.000000 -0.281250 
-0.250000 -1.000000 -0.281250 
-0.250000 -1.000000 -0.312500 
-0.218750 -1.000000 -0.250000 
-0.218750 -1.000000 -0.281250 
-0.250000 -1.000000 -0.250000 
-0.250000 -1.000000 -0.281250 
-0.187500 -1.000000 -0.312500 
-0.218750 -1.000000 -0.312500 
-0.218750 -1.000000 -0.343750 
-0.187500 -1.000000 -0.343750 
-0.218750 -1.000000 -0.343750 
-0.218750 -1.000000 -0.375000 
-0.250000 -1.000000 -0.312500 
-0.250000 -1.000000 -0.343750 
-0.218750 -1.000000 -0.343750 
-0.218750 -1.000000 -0.343750 
-0.250000 -1.000000 -0.343750 
-0.250000 -1.000000 -0.375000 
-0.218750 -1.000000 -0.375000 
-0.187500 -1.000000 -0.062500 
-0.187500 -1.000000 -0.093750 
-0.156250 -1.000000 -0.093750 
-0.156250 -1.000000 -0.062500 
-0.125000 -1.000000 -0.093750 
-0.125000 -1.000000 -0.062500 
-0.187500 -1.000000 -0.125000 
-0.156250 -1.000000 -0.125000 
-0.125000 -1.000000 -0.125000 
-0.156250 -1.000000 -0.031250 
-0.187500 -1.000000 -0.031250 
-0.156250 -1.000000 0.000000 
-0.187500 -1.000000 0.000000 
-0.125000 -1.000000 -0.031250 
-0.125000 -1.000000 0.000000 
-0.218750 -1.000000 -0.031250 
-0.218750 -1.000000 -0.062500 
-0.250000 -1.000000 -0.031250 
-0.250000 -1.000000 -0.062500 
-0.218750 -1.000000 0.000000 
-0.250000 -1.000000 0.000000 
-0.218750 -1.000000 -0.093750 
-0.218750 -1.000000 -0.125000 
-0.250000 -1.000000 -0.093750 
-0.250000 -1.000000 -0.125000 
-0.437500 -1.000000 -0.812500 
-0.437500 -1.000000 -0.843750 
-0.406250 -1.000000 -0.843750 
-0.406250 -1.000000 -0.812500 
-0.375000 -1.000000 -0.843750 
-0.375000 -1.000000 -0.812500 
-0.437500 -1.000000 -0.875000 
-0.406250 -1.000000 -0.875000 
-0.375000 -1.000000 -0.875000 
-0.406250 -1.000000 -0.781250 
-0.437500 -1.000000 -0.781250 
-0.406250 -1.000000 -0.750000 
-0.437500 -1.000000 -0.750000 
-0.375000 -1.000000 -0.781250 
-0.375000 -1.000000 -0.750000 
-0.468750 -1.000000 -0.781250 
-0.468750 -1.000000 -0.812500 
-0.500000 -1.000000 -0.781250 
-0.500000 -1.000000 -0.812500 
-0.468750 -1.000000 -0.750000 
-0.500000 -1.000000 -0.750000 
-0.468750 -1.000000 -0.843750 
-0.468750 -1.000000 -0.875000 
-0.500000 -1.000000 -0.843750 
-0.500000 -1.000000 -0.875000 
-0.187500 -1.000000 -0.812500 
-0.187500 -1.000000 -0.843750 
-0.156250 -1.000000 -0.843750 
-0.156250 -1.000000 -0.812500 
-0.125000 -1.000000 -0.843750 
-0.125000 -1.000000 -0.812500 
-0.187500 -1.000000 -0.875000 
-0.156250 -1.000000 -0.875000 
-0.125000 -1.000000 -0.875000 
-0.156250 -1.000000 -0.781250 
-0.187500 -1.000000 -0.781250 
-0.156250 -1.000000 -0.750000 
-0.187500 -1.000000 -0.750000 
-0.125000 -1.000000 -0.781250 
-0.125000 -1.000000 -0.750000 
-0.218750 -1.000000 -0.781250 
-0.218750 -1.000000 -0.812500 
-0.250000 -1.000000 -0.781250 
-0.250000 -1.000000 -0.812500 
-0.218750 -1.000000 -0.750000 
-0.250000 -1.000000 -0.750000 
-0.218750 -1.000000 -0.843750 
-0.218750 -1.000000 -0.875000 
-0.250000 -1.000000 -0.843750 
-0.250000 -1.000000 -0.875000 
-0.187500 -1.000000 -0.562500 
-0.187500 -1.000000 -0.593750 
-0.156250 -1.000000 -0.593750 
-0.156250 -1.000000 -0.562500 
-0.125000 -1.000000 -0.593750 
-0.125000 -1.000000 -0.562500 
-0.187500 -1.000000 -0.625000 
-0.156250 -1.000000 -0.625000 
-0.125000 -1.000000 -0.625000 
-0.156250 -1.000000 -0.531250 
-0.187500 -1.000000 -0.531250 
-0.156250 -1.000000 -0.500000 
-0.187500 -1.000000 -0.500000 
-0.125000 -1.000000 -0.531250 
-0.125000 -1.000000 -0.500000 
-0.218750 -1.000000 -0.531250 
-0.218750 -1.000000 -0.562500 
-0.250000 -1.000000 -0.531250 
-0.250000 -1.000000 -0.562500 
-0.218750 -1.000000 -0.500000 
-0.250000 -1.000000 -0.500000 
-0.218750 -1.000000 -0.593750 
-0.218750 -1.000000 -0.625000 
-0.250000 -1.000000 -0.593750 
-0.250000 -1.000000 -0.625000 
-0.935547 -0.998047 -0.812500 
-0.935547 -0.998047 -0.843750 
-0.906250 -1.000000 -0.843750 
-0.906250 -1.000000 -0.812500 
-0.906250 -1.000000 -0.812500 
-0.906250 -1.000000 -0.843750 
-0.875000 -1.000000 -0.843750 
-0.875000 -1.000000 -0.812500 
-0.935547 -0.998047 -0.875000 
-0.906250 -1.000000 -0.875000 
-0.906250 -1.000000 -0.843750 
-0.906250 -1.000000 -0.875000 
-0.875000 -1.000000 -0.875000 
-0.875000 -1.000000 -0.843750 
-0.906250 -1.000000 -0.781250 
-0.935547 -0.998047 -0.781250 
-0.906250 -1.000000 -0.750000 
-0.935547 -0.998047 -0.750000 
-0.875000 -1.000000 -0.781250 
-0.906250 -1.000000 -0.781250 
-0.875000 -1.000000 -0.750000 
-0.906250 -1.000000 -0.750000 
-0.935547 -0.998047 -0.812500 
-0.935547 -0.998047 -0.781250 
-0.960938 -0.992187 -0.781250 
-0.960938 -0.992187 -0.812500 
-0.960938 -0.992187 -0.812500 
-0.960938 -0.992187 -0.781250 
-0.980469 -0.980469 -0.781250 
-0.980469 -0.980469 -0.812500 
-0.935547 -0.998047 -0.750000 
-0.960938 -0.992187 -0.750000 
-0.960938 -0.992187 -0.750000 
-0.980469 -0.980469 -0.750000 
-0.960938 -0.992187 -0.843750 
-0.935547 -0.998047 -0.843750 
-0.960938 -0.992187 -0.875000 
-0.935547 -0.998047 -0.875000 
-0.980469 -0.980469 -0.843750 
-0.960938 -0.992187 -0.843750 
-0.980469 -0.980469 -0.875000 
-0.960938 -0.992187 -0.875000 
-0.687500 -1.000000 -0.812500 
-0.687500 -1.000000 -0.843750 
-0.656250 -1.000000 -0.843750 
-0.656250 -1.000000 -0.812500 
-0.656250 -1.000000 -0.812500 
-0.656250 -1.000000 -0.843750 
-0.625000 -1.000000 -0.843750 
-0.625000 -1.000000 -0.812500 
-0.687500 -1.000000 -0.843750 
-0.687500 -1.000000 -0.875000 
-0.656250 -1.000000 -0.875000 
-0.656250 -1.000000 -0.843750 
-0.656250 -1.000000 -0.875000 
-0.625000 -1.000000 -0.875000 
-0.687500 -1.000000 -0.812500 
-0.656250 -1.000000 -0.781250 
-0.687500 -1.000000 -0.781250 
-0.687500 -1.000000 -0.781250 
-0.656250 -1.000000 -0.781250 
-0.656250 -1.000000 -0.750000 
-0.687500 -1.000000 -0.750000 
-0.625000 -1.000000 -0.781250 
-0.656250 -1.000000 -0.781250 
-0.625000 -1.000000 -0.781250 
-0.625000 -1.000000 -0.750000 
-0.656250 -1.000000 -0.750000 
-0.687500 -1.000000 -0.812500 
-0.687500 -1.000000 -0.781250 
-0.718750 -1.000000 -0.781250 
-0.718750 -1.000000 -0.812500 
-0.718750 -1.000000 -0.812500 
-0.718750 -1.000000 -0.781250 
-0.750000 -1.000000 -0.781250 
-0.750000 -1.000000 -0.812500 
-0.687500 -1.000000 -0.781250 
-0.687500 -1.000000 -0.750000 
-0.718750 -1.000000 -0.750000 
-0.718750 -1.000000 -0.781250 
-0.718750 -1.000000 -0.750000 
-0.750000 -1.000000 -0.750000 
-0.718750 -1.000000 -0.812500 
-0.718750 -1.000000 -0.843750 
-0.687500 -1.000000 -0.843750 
-0.718750 -1.000000 -0.843750 
-0.718750 -1.000000 -0.875000 
-0.687500 -1.000000 -0.875000 
-0.750000 -1.000000 -0.843750 
-0.718750 -1.000000 -0.843750 
-0.718750 -1.000000 -0.843750 
-0.750000 -1.000000 -0.843750 
-0.750000 -1.000000 -0.875000 
-0.718750 -1.000000 -0.875000 
-0.687500 -1.000000 -0.562500 
-0.687500 -1.000000 -0.593750 
-0.656250 -1.000000 -0.593750 
-0.656250 -1.000000 -0.562500 
-0.656250 -1.000000 -0.562500 
-0.656250 -1.000000 -0.593750 
-0.625000 -1.000000 -0.593750 
-0.625000 -1.000000 -0.562500 
-0.687500 -1.000000 -0.593750 
-0.687500 -1.000000 -0.625000 
-0.656250 -1.000000 -0.625000 
-0.656250 -1.000000 -0.593750 
-0.625000 -1.000000 -0.625000 
-0.625000 -1.000000 -0.593750 
-0.687500 -1.000000 -0.562500 
-0.656250 -1.000000 -0.562500 
-0.656250 -1.000000 -0.531250 
-0.687500 -1.000000 -0.531250 
-0.687500 -1.000000 -0.531250 
-0.656250 -1.000000 -0.531250 
-0.656250 -1.000000 -0.500000 
-0.687500 -1.000000 -0.500000 
-0.656250 -1.000000 -0.562500 
-0.625000 -1.000000 -0.562500 
-0.625000 -1.000000 -0.531250 
-0.656250 -1.000000 -0.531250 
-0.656250 -1.000000 -0.531250 
-0.625000 -1.000000 -0.531250 
-0.625000 -1.000000 -0.500000 
-0.656250 -1.000000 -0.500000 
-0.687500 -1.000000 -0.562500 
-0.687500 -1.000000 -0.531250 
-0.718750 -1.000000 -0.531250 
-0.718750 -1.000000 -0.562500 
-0.718750 -1.000000 -0.562500 
-0.718750 -1.000000 -0.531250 
-0.750000 -1.000000 -0.531250 
-0.750000 -1.000000 -0.562500 
-0.687500 -1.000000 -0.531250 
-0.687500 -1.000000 -0.500000 
-0.718750 -1.000000 -0.500000 
-0.718750 -1.000000 -0.531250 
-0.718750 -1.000000 -0.500000 
-0.750000 -1.000000 -0.500000 
-0.718750 -1.000000 -0.593750 
-0.718750 -1.000000 -0.625000 
-0.687500 -1.000000 -0.625000 
-0.750000 -1.000000 -0.593750 
-0.750000 -1.000000 -0.625000 
0.562500 -1.000000 -0.312500 
0.562500 -1.000000 -0.343750 
0.593750 -1.000000 -0.343750 
0.593750 -1.000000 -0.312500 
0.625000 -1.000000 -0.343750 
0.625000 -1.000000 -0.312500 
0.562500 -1.000000 -0.375000 
0.593750 -1.000000 -0.375000 
0.625000 -1.000000 -0.375000 
0.593750 -1.000000 -0.281250 
0.562500 -1.000000 -0.281250 
0.593750 -1.000000 -0.250000 
0.562500 -1.000000 -0.250000 
0.625000 -1.000000 -0.281250 
0.625000 -1.000000 -0.250000 
0.531250 -1.000000 -0.281250 
0.531250 -1.000000 -0.312500 
0.500000 -1.000000 -0.281250 
0.500000 -1.000000 -0.312500 
0.531250 -1.000000 -0.250000 
0.500000 -1.000000 -0.250000 
0.531250 -1.000000 -0.343750 
0.531250 -1.000000 -0.375000 
0.500000 -1.000000 -0.343750 
0.500000 -1.000000 -0.375000 
0.812500 -1.000000 -0.312500 
0.812500 -1.000000 -0.343750 
0.843750 -1.000000 -0.343750 
0.843750 -1.000000 -0.312500 
0.843750 -1.000000 -0.312500 
0.843750 -1.000000 -0.343750 
0.875000 -1.000000 -0.343750 
0.875000 -1.000000 -0.312500 
0.812500 -1.000000 -0.343750 
0.812500 -1.000000 -0.375000 
0.843750 -1.000000 -0.375000 
0.843750 -1.000000 -0.375000 
0.875000 -1.000000 -0.375000 
0.875000 -1.000000 -0.343750 
0.812500 -1.000000 -0.312500 
0.843750 -1.000000 -0.281250 
0.812500 -1.000000 -0.281250 
0.812500 -1.000000 -0.281250 
0.843750 -1.000000 -0.281250 
0.843750 -1.000000 -0.250000 
0.812500 -1.000000 -0.250000 
0.843750 -1.000000 -0.312500 
0.875000 -1.000000 -0.312500 
0.875000 -1.000000 -0.281250 
0.875000 -1.000000 -0.250000 
0.812500 -1.000000 -0.312500 
0.812500 -1.000000 -0.281250 
0.781250 -1.000000 -0.281250 
0.781250 -1.000000 -0.312500 
0.781250 -1.000000 -0.312500 
0.781250 -1.000000 -0.281250 
0.750000 -1.000000 -0.281250 
0.750000 -1.000000 -0.312500 
0.812500 -1.000000 -0.281250 
0.812500 -1.000000 -0.250000 
0.781250 -1.000000 -0.250000 
0.781250 -1.000000 -0.281250 
0.781250 -1.000000 -0.281250 
0.781250 -1.000000 -0.250000 
0.750000 -1.000000 -0.250000 
0.750000 -1.000000 -0.281250 
0.781250 -1.000000 -0.312500 
0.781250 -1.000000 -0.343750 
0.812500 -1.000000 -0.343750 
0.781250 -1.000000 -0.343750 
0.781250 -1.000000 -0.375000 
0.812500 -1.000000 -0.375000 
0.750000 -1.000000 -0.343750 
0.750000 -1.000000 -0.375000 
0.812500 -1.000000 -0.062500 
0.812500 -1.000000 -0.093750 
0.843750 -1.000000 -0.093750 
0.843750 -1.000000 -0.062500 
0.875000 -1.000000 -0.093750 
0.875000 -1.000000 -0.062500 
0.812500 -1.000000 -0.125000 
0.843750 -1.000000 -0.125000 
0.875000 -1.000000 -0.125000 
0.843750 -1.000000 -0.031250 
0.812500 -1.000000 -0.031250 
0.843750 -1.000000 0.000000 
0.812500 -1.000000 0.000000 
0.875000 -1.000000 -0.031250 
0.875000 -1.000000 0.000000 
0.781250 -1.000000 -0.031250 
0.781250 -1.000000 -0.062500 
0.750000 -1.000000 -0.031250 
0.750000 -1.000000 -0.062500 
0.781250 -1.000000 0.000000 
0.750000 -1.000000 0.000000 
0.781250 -1.000000 -0.093750 
0.781250 -1.000000 -0.125000 
0.750000 -1.000000 -0.093750 
0.750000 -1.000000 -0.125000 
0.562500 -1.000000 -0.812500 
0.562500 -1.000000 -0.843750 
0.593750 -1.000000 -0.843750 
0.593750 -1.000000 -0.812500 
0.625000 -1.000000 -0.843750 
0.625000 -1.000000 -0.812500 
0.562500 -1.000000 -0.875000 
0.593750 -1.000000 -0.875000 
0.625000 -1.000000 -0.875000 
0.593750 -1.000000 -0.781250 
0.562500 -1.000000 -0.781250 
0.593750 -1.000000 -0.750000 
0.562500 -1.000000 -0.750000 
0.625000 -1.000000 -0.781250 
0.625000 -1.000000 -0.750000 
0.531250 -1.000000 -0.781250 
0.531250 -1.000000 -0.812500 
0.500000 -1.000000 -0.781250 
0.500000 -1.000000 -0.812500 
0.531250 -1.000000 -0.750000 
0.500000 -1.000000 -0.750000 
0.531250 -1.000000 -0.843750 
0.531250 -1.000000 -0.875000 
0.500000 -1.000000 -0.843750 
0.500000 -1.000000 -0.875000 
0.812500 -1.000000 -0.812500 
0.812500 -1.000000 -0.843750 
0.843750 -1.000000 -0.843750 
0.843750 -1.000000 -0.812500 
0.875000 -1.000000 -0.843750 
0.875000 -1.000000 -0.812500 
0.812500 -1.000000 -0.875000 
0.843750 -1.000000 -0.875000 
0.875000 -1.000000 -0.875000 
0.843750 -1.000000 -0.781250 
0.812500 -1.000000 -0.781250 
0.843750 -1.000000 -0.750000 
0.812500 -1.000000 -0.750000 
0.875000 -1.000000 -0.781250 
0.875000 -1.000000 -0.750000 
0.781250 -1.000000 -0.781250 
0.781250 -1.000000 -0.812500 
0.750000 -1.000000 -0.781250 
0.750000 -1.000000 -0.812500 
0.781250 -1.000000 -0.750000 
0.750000 -1.000000 -0.750000 
0.781250 -1.000000 -0.843750 
0.781250 -1.000000 -0.875000 
0.750000 -1.000000 -0.843750 
0.750000 -1.000000 -0.875000 
0.812500 -1.000000 -0.562500 
0.812500 -1.000000 -0.593750 
0.843750 -1.000000 -0.593750 
0.843750 -1.000000 -0.562500 
0.875000 -1.000000 -0.593750 
0.875000 -1.000000 -0.562500 
0.812500 -1.000000 -0.625000 
0.843750 -1.000000 -0.625000 
0.875000 -1.000000 -0.625000 
0.843750 -1.000000 -0.531250 
0.812500 -1.000000 -0.531250 
0.843750 -1.000000 -0.500000 
0.812500 -1.000000 -0.500000 
0.875000 -1.000000 -0.531250 
0.875000 -1.000000 -0.500000 
0.781250 -1.000000 -0.531250 
0.781250 -1.000000 -0.562500 
0.750000 -1.000000 -0.531250 
0.750000 -1.000000 -0.562500 
0.781250 -1.000000 -0.500000 
0.750000 -1.000000 -0.500000 
0.781250 -1.000000 -0.593750 
0.781250 -1.000000 -0.625000 
0.750000 -1.000000 -0.593750 
0.750000 -1.000000 -0.625000 
0.062500 -1.000000 -0.812500 
0.062500 -1.000000 -0.843750 
0.093750 -1.000000 -0.843750 
0.093750 -1.000000 -0.812500 
0.125000 -1.000000 -0.843750 
0.125000 -1.000000 -0.812500 
0.062500 -1.000000 -0.875000 
0.093750 -1.000000 -0.875000 
0.125000 -1.000000 -0.875000 
0.093750 -1.000000 -0.781250 
0.062500 -1.000000 -0.781250 
0.093750 -1.000000 -0.750000 
0.062500 -1.000000 -0.750000 
0.125000 -1.000000 -0.781250 
0.125000 -1.000000 -0.750000 
0.031250 -1.000000 -0.781250 
0.031250 -1.000000 -0.812500 
-0.000000 -1.000000 -0.781250 
-0.000000 -1.000000 -0.812500 
0.031250 -1.000000 -0.750000 
-0.000000 -1.000000 -0.750000 
0.031250 -1.000000 -0.843750 
0.031250 -1.000000 -0.875000 
-0.000000 -1.000000 -0.843750 
-0.000000 -1.000000 -0.875000 
0.312500 -1.000000 -0.812500 
0.312500 -1.000000 -0.843750 
0.343750 -1.000000 -0.843750 
0.343750 -1.000000 -0.812500 
0.375000 -1.000000 -0.843750 
0.375000 -1.000000 -0.812500 
0.312500 -1.000000 -0.843750 
0.312500 -1.000000 -0.875000 
0.343750 -1.000000 -0.875000 
0.343750 -1.000000 -0.843750 
0.343750 -1.000000 -0.875000 
0.375000 -1.000000 -0.875000 
0.343750 -1.000000 -0.781250 
0.312500 -1.000000 -0.781250 
0.343750 -1.000000 -0.750000 
0.312500 -1.000000 -0.750000 
0.375000 -1.000000 -0.781250 
0.375000 -1.000000 -0.750000 
0.312500 -1.000000 -0.812500 
0.312500 -1.000000 -0.781250 
0.281250 -1.000000 -0.781250 
0.281250 -1.000000 -0.812500 
0.281250 -1.000000 -0.812500 
0.281250 -1.000000 -0.781250 
0.250000 -1.000000 -0.781250 
0.250000 -1.000000 -0.812500 
0.281250 -1.000000 -0.750000 
0.281250 -1.000000 -0.781250 
0.250000 -1.000000 -0.750000 
0.250000 -1.000000 -0.781250 
0.312500 -1.000000 -0.812500 
0.281250 -1.000000 -0.812500 
0.281250 -1.000000 -0.843750 
0.312500 -1.000000 -0.843750 
0.281250 -1.000000 -0.843750 
0.281250 -1.000000 -0.875000 
0.250000 -1.000000 -0.812500 
0.250000 -1.000000 -0.843750 
0.281250 -1.000000 -0.843750 
0.281250 -1.000000 -0.843750 
0.250000 -1.000000 -0.843750 
0.250000 -1.000000 -0.875000 
0.281250 -1.000000 -0.875000 
0.312500 -1.000000 -0.562500 
0.312500 -1.000000 -0.593750 
0.343750 -1.000000 -0.593750 
0.343750 -1.000000 -0.562500 
0.375000 -1.000000 -0.593750 
0.375000 -1.000000 -0.562500 
0.312500 -1.000000 -0.625000 
0.343750 -1.000000 -0.625000 
0.375000 -1.000000 -0.625000 
0.343750 -1.000000 -0.531250 
0.312500 -1.000000 -0.531250 
0.343750 -1.000000 -0.500000 
0.312500 -1.000000 -0.500000 
0.375000 -1.000000 -0.531250 
0.375000 -1.000000 -0.500000 
0.281250 -1.000000 -0.531250 
0.281250 -1.000000 -0.562500 
0.250000 -1.000000 -0.531250 
0.250000 -1.000000 -0.562500 
0.281250 -1.000000 -0.500000 
0.250000 -1.000000 -0.500000 
0.281250 -1.000000 -0.593750 
0.281250 -1.000000 -0.625000 
0.250000 -1.000000 -0.593750 
0.250000 -1.000000 -0.625000 
0.562499 -1.000000 0.687500 
0.562500 -1.000000 0.656250 
0.593749 -1.000000 0.656250 
0.593749 -1.000000 0.687500 
0.624999 -1.000000 0.656250 
0.624999 -1.000000 0.687500 
0.562500 -1.000000 0.625000 
0.593750 -1.000000 0.625000 
0.625000 -1.000000 0.625000 
0.593749 -1.000000 0.718750 
0.562499 -1.000000 0.718750 
0.593749 -1.000000 0.750000 
0.562499 -1.000000 0.750000 
0.624999 -1.000000 0.718750 
0.624999 -1.000000 0.750000 
0.531249 -1.000000 0.718750 
0.531249 -1.000000 0.687500 
0.499999 -1.000000 0.718750 
0.499999 -1.000000 0.687500 
0.531249 -1.000000 0.750000 
0.499999 -1.000000 0.750000 
0.531250 -1.000000 0.656250 
0.531250 -1.000000 0.625000 
0.500000 -1.000000 0.656250 
0.500000 -1.000000 0.625000 
0.812499 -1.000000 0.687500 
0.812499 -1.000000 0.656250 
0.843749 -1.000000 0.656250 
0.843749 -1.000000 0.687500 
0.874999 -1.000000 0.656250 
0.874999 -1.000000 0.687500 
0.812499 -1.000000 0.625000 
0.843750 -1.000000 0.625000 
0.875000 -1.000000 0.625000 
0.843749 -1.000000 0.718750 
0.812499 -1.000000 0.718750 
0.843749 -1.000000 0.750000 
0.812499 -1.000000 0.750000 
0.874999 -1.000000 0.718750 
0.874999 -1.000000 0.750000 
0.781249 -1.000000 0.718750 
0.781249 -1.000000 0.687500 
0.781249 -1.000000 0.687500 
0.781249 -1.000000 0.718750 
0.749999 -1.000000 0.718750 
0.749999 -1.000000 0.687500 
0.781249 -1.000000 0.750000 
0.781249 -1.000000 0.750000 
0.749999 -1.000000 0.750000 
0.781249 -1.000000 0.656250 
0.781250 -1.000000 0.625000 
0.749999 -1.000000 0.656250 
0.781249 -1.000000 0.656250 
0.750000 -1.000000 0.625000 
0.781250 -1.000000 0.625000 
0.812499 -0.998047 0.935547 
0.812499 -1.000000 0.906250 
0.843749 -1.000000 0.906250 
0.843749 -0.998047 0.935547 
0.874999 -1.000000 0.906250 
0.874999 -0.998047 0.935547 
0.812499 -1.000000 0.906250 
0.812499 -1.000000 0.875000 
0.843749 -1.000000 0.875000 
0.843749 -1.000000 0.906250 
0.874999 -1.000000 0.875000 
0.874999 -1.000000 0.906250 
0.812499 -0.998047 0.935547 
0.843749 -0.998047 0.935547 
0.843749 -0.992188 0.960938 
0.812499 -0.992188 0.960938 
0.812499 -0.992188 0.960938 
0.843749 -0.992188 0.960938 
0.843749 -0.980469 0.980469 
0.812499 -0.980469 0.980469 
0.874999 -0.998047 0.935547 
0.874999 -0.992188 0.960938 
0.874999 -0.992188 0.960938 
0.874999 -0.980469 0.980469 
0.781249 -0.992188 0.960938 
0.781249 -0.998047 0.935547 
0.749999 -0.992188 0.960938 
0.749999 -0.998047 0.935547 
0.781249 -0.980469 0.980469 
0.781249 -0.992188 0.960938 
0.749999 -0.980469 0.980469 
0.749999 -0.992188 0.960938 
0.781249 -0.998047 0.935547 
0.781249 -1.000000 0.906250 
0.781249 -1.000000 0.906250 
0.781249 -1.000000 0.875000 
0.749999 -0.998047 0.935547 
0.749999 -1.000000 0.906250 
0.749999 -1.000000 0.906250 
0.749999 -1.000000 0.875000 
0.562500 -1.000000 0.187500 
0.562500 -1.000000 0.156250 
0.593750 -1.000000 0.156250 
0.593750 -1.000000 0.187500 
0.625000 -1.000000 0.156250 
0.625000 -1.000000 0.187500 
0.562500 -1.000000 0.125000 
0.593750 -1.000000 0.125000 
0.625000 -1.000000 0.125000 
0.593750 -1.000000 0.218750 
0.562500 -1.000000 0.218750 
0.593750 -1.000000 0.250000 
0.562500 -1.000000 0.250000 
0.625000 -1.000000 0.218750 
0.625000 -1.000000 0.250000 
0.531250 -1.000000 0.218750 
0.531250 -1.000000 0.187500 
0.500000 -1.000000 0.218750 
0.500000 -1.000000 0.187500 
0.531250 -1.000000 0.250000 
0.500000 -1.000000 0.250000 
0.531250 -1.000000 0.156250 
0.531250 -1.000000 0.125000 
0.500000 -1.000000 0.156250 
0.500000 -1.000000 0.125000 
0.812500 -1.000000 0.187500 
0.812500 -1.000000 0.156250 
0.843750 -1.000000 0.156250 
0.843750 -1.000000 0.187500 
0.875000 -1.000000 0.156250 
0.875000 -1.000000 0.187500 
0.812500 -1.000000 0.125000 
0.843750 -1.000000 0.125000 
0.875000 -1.000000 0.125000 
0.843750 -1.000000 0.218750 
0.812500 -1.000000 0.218750 
0.843750 -1.000000 0.250000 
0.812500 -1.000000 0.250000 
0.875000 -1.000000 0.218750 
0.875000 -1.000000 0.250000 
0.781250 -1.000000 0.218750 
0.781250 -1.000000 0.187500 
0.750000 -1.000000 0.218750 
0.750000 -1.000000 0.187500 
0.781250 -1.000000 0.250000 
0.750000 -1.000000 0.250000 
0.781250 -1.000000 0.156250 
0.781250 -1.000000 0.125000 
0.750000 -1.000000 0.156250 
0.750000 -1.000000 0.125000 
0.812500 -1.000000 0.437500 
0.812500 -1.000000 0.406250 
0.843750 -1.000000 0.406250 
0.843750 -1.000000 0.437500 
0.843750 -1.000000 0.437500 
0.843750 -1.000000 0.406250 
0.875000 -1.000000 0.406250 
0.875000 -1.000000 0.437500 
0.812500 -1.000000 0.406250 
0.812500 -1.000000 0.375000 
0.843750 -1.000000 0.375000 
0.843750 -1.000000 0.406250 
0.875000 -1.000000 0.375000 
0.875000 -1.000000 0.406250 
0.812500 -1.000000 0.437500 
0.843750 -1.000000 0.468750 
0.812500 -1.000000 0.468750 
0.843750 -1.000000 0.500000 
0.812500 -1.000000 0.500000 
0.875000 -1.000000 0.468750 
0.875000 -1.000000 0.500000 
0.812500 -1.000000 0.437500 
0.812500 -1.000000 0.468750 
0.781250 -1.000000 0.468750 
0.781250 -1.000000 0.437500 
0.750000 -1.000000 0.468750 
0.750000 -1.000000 0.437500 
0.812500 -1.000000 0.468750 
0.812500 -1.000000 0.500000 
0.781250 -1.000000 0.500000 
0.781250 -1.000000 0.468750 
0.781250 -1.000000 0.468750 
0.781250 -1.000000 0.500000 
0.750000 -1.000000 0.500000 
0.750000 -1.000000 0.468750 
0.812500 -1.000000 0.437500 
0.781250 -1.000000 0.437500 
0.781250 -1.000000 0.406250 
0.812500 -1.000000 0.406250 
0.781250 -1.000000 0.406250 
0.781250 -1.000000 0.375000 
0.812500 -1.000000 0.375000 
0.781250 -1.000000 0.437500 
0.750000 -1.000000 0.437500 
0.750000 -1.000000 0.406250 
0.781250 -1.000000 0.406250 
0.750000 -1.000000 0.406250 
0.750000 -1.000000 0.375000 
0.781250 -1.000000 0.375000 
0.062500 -1.000000 0.187500 
0.062500 -1.000000 0.156250 
0.093750 -1.000000 0.156250 
0.093750 -1.000000 0.187500 
0.125000 -1.000000 0.156250 
0.125000 -1.000000 0.187500 
0.062500 -1.000000 0.125000 
0.093750 -1.000000 0.125000 
0.125000 -1.000000 0.125000 
0.093750 -1.000000 0.218750 
0.062500 -1.000000 0.218750 
0.093750 -1.000000 0.250000 
0.062500 -1.000000 0.250000 
0.125000 -1.000000 0.218750 
0.125000 -1.000000 0.250000 
0.031250 -1.000000 0.218750 
0.031250 -1.000000 0.187500 
-0.000000 -1.000000 0.218750 
-0.000000 -1.000000 0.187500 
0.031250 -1.000000 0.250000 
-0.000000 -1.000000 0.250000 
0.031250 -1.000000 0.156250 
0.031250 -1.000000 0.125000 
-0.000000 -1.000000 0.156250 
-0.000000 -1.000000 0.125000 
0.312500 -1.000000 0.187500 
0.312500 -1.000000 0.156250 
0.343750 -1.000000 0.156250 
0.343750 -1.000000 0.187500 
0.343750 -1.000000 0.187500 
0.343750 -1.000000 0.156250 
0.375000 -1.000000 0.156250 
0.375000 -1.000000 0.187500 
0.312500 -1.000000 0.156250 
0.312500 -1.000000 0.125000 
0.343750 -1.000000 0.125000 
0.343750 -1.000000 0.125000 
0.375000 -1.000000 0.125000 
0.375000 -1.000000 0.156250 
0.312500 -1.000000 0.187500 
0.343750 -1.000000 0.187500 
0.343750 -1.000000 0.218750 
0.312500 -1.000000 0.218750 
0.343750 -1.000000 0.250000 
0.312500 -1.000000 0.250000 
0.343750 -1.000000 0.187500 
0.375000 -1.000000 0.187500 
0.375000 -1.000000 0.218750 
0.343750 -1.000000 0.218750 
0.375000 -1.000000 0.250000 
0.343750 -1.000000 0.250000 
0.281250 -1.000000 0.218750 
0.281250 -1.000000 0.187500 
0.281250 -1.000000 0.187500 
0.281250 -1.000000 0.218750 
0.250000 -1.000000 0.218750 
0.250000 -1.000000 0.187500 
0.312500 -1.000000 0.218750 
0.312500 -1.000000 0.250000 
0.281250 -1.000000 0.250000 
0.281250 -1.000000 0.218750 
0.250000 -1.000000 0.250000 
0.250000 -1.000000 0.218750 
0.312500 -1.000000 0.187500 
0.281250 -1.000000 0.187500 
0.281250 -1.000000 0.156250 
0.312500 -1.000000 0.156250 
0.281250 -1.000000 0.156250 
0.281250 -1.000000 0.125000 
0.312500 -1.000000 0.125000 
0.250000 -1.000000 0.156250 
0.250000 -1.000000 0.125000 
0.312500 -1.000000 0.437500 
0.312500 -1.000000 0.406250 
0.343750 -1.000000 0.406250 
0.343750 -1.000000 0.437500 
0.343750 -1.000000 0.437500 
0.343750 -1.000000 0.406250 
0.375000 -1.000000 0.406250 
0.375000 -1.000000 0.437500 
0.312500 -1.000000 0.375000 
0.343750 -1.000000 0.375000 
0.343750 -1.000000 0.375000 
0.375000 -1.000000 0.375000 
0.312500 -1.000000 0.437500 
0.343750 -1.000000 0.437500 
0.343750 -1.000000 0.468750 
0.312500 -1.000000 0.468750 
0.312500 -1.000000 0.468750 
0.343750 -1.000000 0.468750 
0.343750 -1.000000 0.500000 
0.312500 -1.000000 0.500000 
0.375000 -1.000000 0.468750 
0.343750 -1.000000 0.468750 
0.375000 -1.000000 0.500000 
0.343750 -1.000000 0.500000 
0.281250 -1.000000 0.468750 
0.281250 -1.000000 0.437500 
0.281250 -1.000000 0.437500 
0.281250 -1.000000 0.468750 
0.250000 -1.000000 0.468750 
0.250000 -1.000000 0.437500 
0.281250 -1.000000 0.500000 
0.281250 -1.000000 0.468750 
0.281250 -1.000000 0.500000 
0.250000 -1.000000 0.500000 
0.312500 -1.000000 0.437500 
0.281250 -1.000000 0.406250 
0.312500 -1.000000 0.406250 
0.281250 -1.000000 0.375000 
0.312500 -1.000000 0.375000 
0.250000 -1.000000 0.406250 
0.250000 -1.000000 0.375000 
1.000000 -0.437500 -0.312500 
1.000000 -0.437500 -0.343750 
1.000000 -0.406250 -0.343750 
1.000000 -0.406250 -0.312500 
1.000000 -0.375000 -0.343750 
1.000000 -0.375000 -0.312500 
1.000000 -0.437500 -0.375000 
1.000000 -0.406250 -0.375000 
1.000000 -0.375000 -0.375000 
1.000000 -0.406250 -0.281250 
1.000000 -0.437500 -0.281250 
1.000000 -0.437500 -0.281250 
1.000000 -0.406250 -0.281250 
1.000000 -0.406250 -0.250000 
1.000000 -0.437500 -0.250000 
1.000000 -0.375000 -0.281250 
1.000000 -0.406250 -0.281250 
1.000000 -0.375000 -0.281250 
1.000000 -0.375000 -0.250000 
1.000000 -0.406250 -0.250000 
1.000000 -0.437500 -0.312500 
1.000000 -0.437500 -0.281250 
1.000000 -0.468750 -0.281250 
1.000000 -0.468750 -0.312500 
1.000000 -0.468750 -0.312500 
1.000000 -0.468750 -0.281250 
1.000000 -0.500000 -0.281250 
1.000000 -0.500000 -0.312500 
1.000000 -0.437500 -0.281250 
1.000000 -0.437500 -0.250000 
1.000000 -0.468750 -0.250000 
1.000000 -0.468750 -0.281250 
1.000000 -0.468750 -0.281250 
1.000000 -0.468750 -0.250000 
1.000000 -0.500000 -0.250000 
1.000000 -0.500000 -0.281250 
1.000000 -0.437500 -0.312500 
1.000000 -0.468750 -0.312500 
1.000000 -0.468750 -0.343750 
1.000000 -0.437500 -0.343750 
1.000000 -0.468750 -0.343750 
1.000000 -0.468750 -0.375000 
1.000000 -0.468750 -0.312500 
1.000000 -0.500000 -0.312500 
1.000000 -0.500000 -0.343750 
1.000000 -0.468750 -0.343750 
1.000000 -0.500000 -0.343750 
1.000000 -0.500000 -0.375000 
1.000000 -0.187500 -0.312500 
1.000000 -0.187500 -0.343750 
1.000000 -0.156250 -0.343750 
1.000000 -0.156250 -0.312500 
1.000000 -0.156250 -0.312500 
1.000000 -0.156250 -0.343750 
1.000000 -0.125000 -0.343750 
1.000000 -0.125000 -0.312500 
1.000000 -0.187500 -0.343750 
1.000000 -0.187500 -0.375000 
1.000000 -0.156250 -0.375000 
1.000000 -0.156250 -0.343750 
1.000000 -0.156250 -0.375000 
1.000000 -0.125000 -0.375000 
1.000000 -0.187500 -0.312500 
1.000000 -0.156250 -0.312500 
1.000000 -0.156250 -0.281250 
1.000000 -0.187500 -0.281250 
1.000000 -0.187500 -0.281250 
1.000000 -0.156250 -0.281250 
1.000000 -0.156250 -0.250000 
1.000000 -0.187500 -0.250000 
1.000000 -0.125000 -0.312500 
1.000000 -0.125000 -0.281250 
1.000000 -0.125000 -0.281250 
1.000000 -0.125000 -0.250000 
1.000000 -0.187500 -0.281250 
1.000000 -0.218750 -0.281250 
1.000000 -0.218750 -0.312500 
1.000000 -0.250000 -0.281250 
1.000000 -0.250000 -0.312500 
1.000000 -0.187500 -0.250000 
1.000000 -0.218750 -0.250000 
1.000000 -0.250000 -0.250000 
1.000000 -0.218750 -0.343750 
1.000000 -0.218750 -0.375000 
1.000000 -0.187500 -0.375000 
1.000000 -0.250000 -0.343750 
1.000000 -0.250000 -0.375000 
1.000000 -0.187500 -0.062500 
1.000000 -0.187500 -0.093750 
1.000000 -0.156250 -0.093750 
1.000000 -0.156250 -0.062500 
1.000000 -0.156250 -0.062500 
1.000000 -0.156250 -0.093750 
1.000000 -0.125000 -0.093750 
1.000000 -0.125000 -0.062500 
1.000000 -0.187500 -0.093750 
1.000000 -0.187500 -0.125000 
1.000000 -0.156250 -0.125000 
1.000000 -0.156250 -0.093750 
1.000000 -0.156250 -0.125000 
1.000000 -0.125000 -0.125000 
1.000000 -0.187500 -0.062500 
1.000000 -0.156250 -0.031250 
1.000000 -0.187500 -0.031250 
1.000000 -0.156250 0.000000 
1.000000 -0.187500 0.000000 
1.000000 -0.125000 -0.031250 
1.000000 -0.125000 0.000000 
1.000000 -0.218750 -0.031250 
1.000000 -0.218750 -0.062500 
1.000000 -0.218750 -0.062500 
1.000000 -0.218750 -0.031250 
1.000000 -0.250000 -0.031250 
1.000000 -0.250000 -0.062500 
1.000000 -0.187500 -0.031250 
1.000000 -0.187500 0.000000 
1.000000 -0.218750 0.000000 
1.000000 -0.218750 -0.031250 
1.000000 -0.250000 0.000000 
1.000000 -0.250000 -0.031250 
1.000000 -0.187500 -0.062500 
1.000000 -0.218750 -0.062500 
1.000000 -0.218750 -0.093750 
1.000000 -0.187500 -0.093750 
1.000000 -0.187500 -0.093750 
1.000000 -0.218750 -0.093750 
1.000000 -0.218750 -0.125000 
1.000000 -0.187500 -0.125000 
1.000000 -0.218750 -0.062500 
1.000000 -0.250000 -0.062500 
1.000000 -0.250000 -0.093750 
1.000000 -0.218750 -0.093750 
1.000000 -0.218750 -0.093750 
1.000000 -0.250000 -0.093750 
1.000000 -0.250000 -0.125000 
1.000000 -0.218750 -0.125000 
1.000000 -0.437500 -0.812500 
1.000000 -0.437500 -0.843750 
1.000000 -0.406250 -0.843750 
1.000000 -0.406250 -0.812500 
1.000000 -0.375000 -0.843750 
1.000000 -0.375000 -0.812500 
1.000000 -0.437500 -0.875000 
1.000000 -0.406250 -0.875000 
1.000000 -0.375000 -0.875000 
1.000000 -0.406250 -0.781250 
1.000000 -0.437500 -0.781250 
1.000000 -0.406250 -0.750000 
1.000000 -0.437500 -0.750000 
1.000000 -0.375000 -0.781250 
1.000000 -0.375000 -0.750000 
1.000000 -0.468750 -0.781250 
1.000000 -0.468750 -0.812500 
1.000000 -0.500000 -0.781250 
1.000000 -0.500000 -0.812500 
1.000000 -0.468750 -0.750000 
1.000000 -0.500000 -0.750000 
1.000000 -0.468750 -0.843750 
1.000000 -0.468750 -0.875000 
1.000000 -0.500000 -0.843750 
1.000000 -0.500000 -0.875000 
1.000000 -0.187500 -0.812500 
1.000000 -0.187500 -0.843750 
1.000000 -0.156250 -0.843750 
1.000000 -0.156250 -0.812500 
1.000000 -0.125000 -0.843750 
1.000000 -0.125000 -0.812500 
1.000000 -0.187500 -0.875000 
1.000000 -0.156250 -0.875000 
1.000000 -0.125000 -0.875000 
1.000000 -0.156250 -0.781250 
1.000000 -0.187500 -0.781250 
1.000000 -0.156250 -0.750000 
1.000000 -0.187500 -0.750000 
1.000000 -0.125000 -0.781250 
1.000000 -0.125000 -0.750000 
1.000000 -0.218750 -0.781250 
1.000000 -0.218750 -0.812500 
1.000000 -0.250000 -0.781250 
1.000000 -0.250000 -0.812500 
1.000000 -0.218750 -0.750000 
1.000000 -0.250000 -0.750000 
1.000000 -0.218750 -0.843750 
1.000000 -0.218750 -0.875000 
1.000000 -0.250000 -0.843750 
1.000000 -0.250000 -0.875000 
1.000000 -0.187500 -0.562500 
1.000000 -0.187500 -0.593750 
1.000000 -0.156250 -0.593750 
1.000000 -0.156250 -0.562500 
1.000000 -0.125000 -0.593750 
1.000000 -0.125000 -0.562500 
1.000000 -0.187500 -0.625000 
1.000000 -0.156250 -0.625000 
1.000000 -0.125000 -0.625000 
1.000000 -0.156250 -0.531250 
1.000000 -0.187500 -0.531250 
1.000000 -0.156250 -0.500000 
1.000000 -0.187500 -0.500000 
1.000000 -0.125000 -0.531250 
1.000000 -0.125000 -0.500000 
1.000000 -0.218750 -0.531250 
1.000000 -0.218750 -0.562500 
1.000000 -0.250000 -0.531250 
1.000000 -0.250000 -0.562500 
1.000000 -0.218750 -0.500000 
1.000000 -0.250000 -0.500000 
1.000000 -0.218750 -0.593750 
1.000000 -0.218750 -0.625000 
1.000000 -0.250000 -0.593750 
1.000000 -0.250000 -0.625000 
0.998047 -0.935547 -0.812500 
0.998047 -0.935547 -0.843750 
1.000000 -0.906250 -0.843750 
1.000000 -0.906250 -0.812500 
1.000000 -0.906250 -0.812500 
1.000000 -0.906250 -0.843750 
1.000000 -0.875000 -0.843750 
1.000000 -0.875000 -0.812500 
0.998047 -0.935547 -0.843750 
0.998047 -0.935547 -0.875000 
1.000000 -0.906250 -0.875000 
1.000000 -0.906250 -0.843750 
1.000000 -0.906250 -0.875000 
1.000000 -0.875000 -0.875000 
0.998047 -0.935547 -0.812500 
1.000000 -0.906250 -0.812500 
1.000000 -0.906250 -0.781250 
0.998047 -0.935547 -0.781250 
1.000000 -0.906250 -0.750000 
0.998047 -0.935547 -0.750000 
1.000000 -0.906250 -0.812500 
1.000000 -0.875000 -0.812500 
1.000000 -0.875000 -0.781250 
1.000000 -0.906250 -0.781250 
1.000000 -0.875000 -0.750000 
1.000000 -0.906250 -0.750000 
0.998047 -0.935547 -0.812500 
0.998047 -0.935547 -0.781250 
0.992187 -0.960938 -0.781250 
0.992187 -0.960938 -0.812500 
0.992187 -0.960938 -0.812500 
0.992187 -0.960938 -0.781250 
0.980469 -0.980469 -0.781250 
0.980469 -0.980469 -0.812500 
0.998047 -0.935547 -0.750000 
0.992187 -0.960938 -0.750000 
0.992187 -0.960938 -0.750000 
0.980469 -0.980469 -0.750000 
0.992187 -0.960938 -0.843750 
0.998047 -0.935547 -0.843750 
0.998047 -0.935547 -0.843750 
0.992187 -0.960938 -0.843750 
0.992188 -0.960938 -0.875000 
0.998047 -0.935547 -0.875000 
0.992187 -0.960938 -0.812500 
0.980469 -0.980469 -0.812500 
0.980469 -0.980469 -0.843750 
0.992187 -0.960938 -0.843750 
0.992187 -0.960938 -0.843750 
0.980469 -0.980469 -0.843750 
0.980469 -0.980469 -0.875000 
0.992188 -0.960938 -0.875000 
1.000000 -0.687500 -0.812500 
1.000000 -0.687500 -0.843750 
1.000000 -0.656250 -0.843750 
1.000000 -0.656250 -0.812500 
1.000000 -0.656250 -0.812500 
1.000000 -0.656250 -0.843750 
1.000000 -0.625000 -0.843750 
1.000000 -0.625000 -0.812500 
1.000000 -0.687500 -0.843750 
1.000000 -0.687500 -0.875000 
1.000000 -0.656250 -0.875000 
1.000000 -0.656250 -0.843750 
1.000000 -0.625000 -0.875000 
1.000000 -0.625000 -0.843750 
1.000000 -0.687500 -0.812500 
1.000000 -0.656250 -0.781250 
1.000000 -0.687500 -0.781250 
1.000000 -0.687500 -0.781250 
1.000000 -0.656250 -0.781250 
1.000000 -0.656250 -0.750000 
1.000000 -0.687500 -0.750000 
1.000000 -0.625000 -0.812500 
1.000000 -0.625000 -0.781250 
1.000000 -0.656250 -0.781250 
1.000000 -0.625000 -0.781250 
1.000000 -0.625000 -0.750000 
1.000000 -0.687500 -0.812500 
1.000000 -0.718750 -0.781250 
1.000000 -0.718750 -0.812500 
1.000000 -0.750000 -0.781250 
1.000000 -0.750000 -0.812500 
1.000000 -0.718750 -0.750000 
1.000000 -0.750000 -0.750000 
1.000000 -0.687500 -0.812500 
1.000000 -0.718750 -0.812500 
1.000000 -0.718750 -0.843750 
1.000000 -0.687500 -0.843750 
1.000000 -0.718750 -0.843750 
1.000000 -0.718750 -0.875000 
1.000000 -0.750000 -0.812500 
1.000000 -0.750000 -0.843750 
1.000000 -0.750000 -0.843750 
1.000000 -0.750000 -0.875000 
1.000000 -0.687500 -0.562500 
1.000000 -0.687500 -0.593750 
1.000000 -0.656250 -0.593750 
1.000000 -0.656250 -0.562500 
1.000000 -0.625000 -0.593750 
1.000000 -0.625000 -0.562500 
1.000000 -0.687500 -0.625000 
1.000000 -0.656250 -0.625000 
1.000000 -0.625000 -0.625000 
1.000000 -0.656250 -0.531250 
1.000000 -0.687500 -0.531250 
1.000000 -0.656250 -0.500000 
1.000000 -0.687500 -0.500000 
1.000000 -0.625000 -0.531250 
1.000000 -0.625000 -0.500000 
1.000000 -0.718750 -0.531250 
1.000000 -0.718750 -0.562500 
1.000000 -0.750000 -0.531250 
1.000000 -0.750000 -0.562500 
1.000000 -0.718750 -0.500000 
1.000000 -0.750000 -0.500000 
1.000000 -0.718750 -0.593750 
1.000000 -0.718750 -0.625000 
1.000000 -0.750000 -0.593750 
1.000000 -0.750000 -0.625000 
1.000000 0.562500 -0.312500 
1.000000 0.562500 -0.343750 
1.000000 0.593750 -0.343750 
1.000000 0.593750 -0.312500 
1.000000 0.625000 -0.343750 
1.000000 0.625000 -0.312500 
1.000000 0.562500 -0.375000 
1.000000 0.593750 -0.375000 
1.000000 0.625000 -0.375000 
1.000000 0.593750 -0.281250 
1.000000 0.562500 -0.281250 
1.000000 0.593750 -0.250000 
1.000000 0.562500 -0.250000 
1.000000 0.625000 -0.281250 
1.000000 0.625000 -0.250000 
1.000000 0.531250 -0.281250 
1.000000 0.531250 -0.312500 
1.000000 0.500000 -0.281250 
1.000000 0.500000 -0.312500 
1.000000 0.531250 -0.250000 
1.000000 0.500000 -0.250000 
1.000000 0.531250 -0.343750 
1.000000 0.531250 -0.375000 
1.000000 0.500000 -0.343750 
1.000000 0.500000 -0.375000 
1.000000 0.812500 -0.312500 
1.000000 0.812500 -0.343750 
1.000000 0.843750 -0.343750 
1.000000 0.843750 -0.312500 
1.000000 0.843750 -0.312500 
1.000000 0.843750 -0.343750 
1.000000 0.875000 -0.343750 
1.000000 0.875000 -0.312500 
1.000000 0.812500 -0.343750 
1.000000 0.812500 -0.375000 
1.000000 0.843750 -0.375000 
1.000000 0.843750 -0.375000 
1.000000 0.875000 -0.375000 
1.000000 0.875000 -0.343750 
1.000000 0.812500 -0.312500 
1.000000 0.843750 -0.281250 
1.000000 0.812500 -0.281250 
1.000000 0.812500 -0.281250 
1.000000 0.843750 -0.281250 
1.000000 0.843750 -0.250000 
1.000000 0.812500 -0.250000 
1.000000 0.843750 -0.312500 
1.000000 0.875000 -0.312500 
1.000000 0.875000 -0.281250 
1.000000 0.875000 -0.250000 
1.000000 0.812500 -0.312500 
1.000000 0.812500 -0.281250 
1.000000 0.781250 -0.281250 
1.000000 0.781250 -0.312500 
1.000000 0.781250 -0.312500 
1.000000 0.781250 -0.281250 
1.000000 0.750000 -0.281250 
1.000000 0.750000 -0.312500 
1.000000 0.812500 -0.281250 
1.000000 0.812500 -0.250000 
1.000000 0.781250 -0.250000 
1.000000 0.781250 -0.281250 
1.000000 0.781250 -0.281250 
1.000000 0.781250 -0.250000 
1.000000 0.750000 -0.250000 
1.000000 0.750000 -0.281250 
1.000000 0.781250 -0.312500 
1.000000 0.781250 -0.343750 
1.000000 0.812500 -0.343750 
1.000000 0.781250 -0.343750 
1.000000 0.781250 -0.375000 
1.000000 0.812500 -0.375000 
1.000000 0.750000 -0.343750 
1.000000 0.750000 -0.375000 
1.000000 0.812500 -0.062500 
1.000000 0.812500 -0.093750 
1.000000 0.843750 -0.093750 
1.000000 0.843750 -0.062500 
1.000000 0.875000 -0.093750 
1.000000 0.875000 -0.062500 
1.000000 0.812500 -0.125000 
1.000000 0.843750 -0.125000 
1.000000 0.875000 -0.125000 
1.000000 0.843750 -0.031250 
1.000000 0.812500 -0.031250 
1.000000 0.843750 0.000000 
1.000000 0.812500 0.000000 
1.000000 0.875000 -0.031250 
1.000000 0.875000 0.000000 
1.000000 0.781250 -0.031250 
1.000000 0.781250 -0.062500 
1.000000 0.750000 -0.031250 
1.000000 0.750000 -0.062500 
1.000000 0.781250 0.000000 
1.000000 0.750000 0.000000 
1.000000 0.781250 -0.093750 
1.000000 0.781250 -0.125000 
1.000000 0.750000 -0.093750 
1.000000 0.750000 -0.125000 
1.000000 0.562500 -0.812500 
1.000000 0.562500 -0.843750 
1.000000 0.593750 -0.843750 
1.000000 0.593750 -0.812500 
1.000000 0.625000 -0.843750 
1.000000 0.625000 -0.812500 
1.000000 0.562500 -0.875000 
1.000000 0.593750 -0.875000 
1.000000 0.625000 -0.875000 
1.000000 0.593750 -0.781250 
1.000000 0.562500 -0.781250 
1.000000 0.593750 -0.750000 
1.000000 0.562500 -0.750000 
1.000000 0.625000 -0.781250 
