-0.750000 1.000000 -0.968750 
-0.750000 1.000000 -0.937500 
-0.718750 1.000000 -1.000000 
-0.750000 1.000000 -1.000000 
-0.718750 1.000000 -0.906250 
-0.718750 1.000000 -0.875000 
-0.750000 1.000000 -0.906250 
-0.750000 1.000000 -0.875000 
-1.000000 0.937500 0.687500 
-1.000000 0.937500 0.656250 
-1.000000 0.906250 0.656250 
-1.000000 0.906250 0.687500 
-1.000000 0.875000 0.656250 
-1.000000 0.875000 0.687500 
-1.000000 0.937500 0.625000 
-1.000000 0.906250 0.625000 
-1.000000 0.875000 0.625000 
-1.000000 0.906250 0.718750 
-1.000000 0.937500 0.718750 
-1.000000 0.906250 0.750000 
-1.000000 0.937500 0.750000 
-1.000000 0.875000 0.718750 
-1.000000 0.875000 0.750000 
-1.000000 0.968750 0.718750 
-1.000000 0.968750 0.687500 
-1.000000 1.000000 0.718750 
-1.000000 1.000000 0.687500 
-1.000000 0.968750 0.750000 
-1.000000 1.000000 0.750000 
-1.000000 0.968750 0.656250 
-1.000000 0.968750 0.625000 
-1.000000 1.000000 0.656250 
-1.000000 1.000000 0.625000 
-1.000000 0.687500 0.687500 
-1.000000 0.687500 0.656250 
-1.000000 0.656250 0.656250 
-1.000000 0.656250 0.687500 
-1.000000 0.625000 0.656250 
-1.000000 0.625000 0.687500 
-1.000000 0.687500 0.656250 
-1.000000 0.687500 0.625000 
-1.000000 0.656250 0.625000 
-1.000000 0.656250 0.656250 
-1.000000 0.656250 0.625000 
-1.000000 0.625000 0.625000 
-1.000000 0.656250 0.718750 
-1.000000 0.687500 0.718750 
-1.000000 0.656250 0.750000 
-1.000000 0.687500 0.750000 
-1.000000 0.625000 0.718750 
-1.000000 0.625000 0.750000 
-1.000000 0.687500 0.687500 
-1.000000 0.687500 0.718750 
-1.000000 0.718750 0.718750 
-1.000000 0.718750 0.687500 
-1.000000 0.718750 0.687500 
-1.000000 0.718750 0.718750 
-1.000000 0.750000 0.718750 
-1.000000 0.750000 0.687500 
-1.000000 0.718750 0.750000 
-1.000000 0.718750 0.718750 
-1.000000 0.750000 0.750000 
-1.000000 0.750000 0.718750 
-1.000000 0.687500 0.687500 
-1.000000 0.718750 0.687500 
-1.000000 0.718750 0.656250 
-1.000000 0.687500 0.656250 
-1.000000 0.718750 0.656250 
-1.000000 0.718750 0.625000 
-1.000000 0.750000 0.687500 
-1.000000 0.750000 0.656250 
-1.000000 0.718750 0.656250 
-1.000000 0.718750 0.656250 
-1.000000 0.750000 0.656250 
-1.000000 0.750000 0.625000 
-1.000000 0.718750 0.625000 
-1.000000 0.687500 0.937500 
-1.000000 0.687500 0.906250 
-1.000000 0.656250 0.906250 
-1.000000 0.656250 0.937500 
-1.000000 0.625000 0.906250 
-1.000000 0.625000 0.937500 
-1.000000 0.687500 0.875000 
-1.000000 0.656250 0.875000 
-1.000000 0.625000 0.875000 
-1.000000 0.656250 0.968750 
-1.000000 0.687500 0.968750 
-1.000000 0.656250 1.000000 
-1.000000 0.687500 1.000000 
-1.000000 0.625000 0.968750 
-1.000000 0.625000 1.000000 
-1.000000 0.718750 0.968750 
-1.000000 0.718750 0.937500 
-1.000000 0.750000 0.968750 
-1.000000 0.750000 0.937500 
-1.000000 0.718750 1.000000 
-1.000000 0.750000 1.000000 
-1.000000 0.718750 0.906250 
-1.000000 0.718750 0.875000 
-1.000000 0.750000 0.906250 
-1.000000 0.750000 0.875000 
-0.937500 -1.000000 0.687500 
-0.937500 -1.000000 0.656250 
-0.906250 -1.000000 0.656250 
-0.906250 -1.000000 0.687500 
-0.906250 -1.000000 0.687500 
-0.906250 -1.000000 0.656250 
-0.875000 -1.000000 0.656250 
-0.875000 -1.000000 0.687500 
-0.937500 -1.000000 0.656250 
-0.937500 -1.000000 0.625000 
-0.906250 -1.000000 0.625000 
-0.906250 -1.000000 0.656250 
-0.906250 -1.000000 0.625000 
-0.875000 -1.000000 0.625000 
-0.937500 -1.000000 0.687500 
-0.906250 -1.000000 0.718750 
-0.937500 -1.000000 0.718750 
-0.937500 -1.000000 0.718750 
-0.906250 -1.000000 0.718750 
-0.906250 -1.000000 0.750000 
-0.937500 -1.000000 0.750000 
-0.875000 -1.000000 0.718750 
-0.906250 -1.000000 0.718750 
-0.875000 -1.000000 0.718750 
-0.875000 -1.000000 0.750000 
-0.906250 -1.000000 0.750000 
-0.937500 -1.000000 0.687500 
-0.937500 -1.000000 0.718750 
-0.968750 -1.000000 0.718750 
-0.968750 -1.000000 0.687500 
-0.968750 -1.000000 0.687500 
-0.968750 -1.000000 0.718750 
-1.000000 -1.000000 0.718750 
-1.000000 -1.000000 0.687500 
-0.937500 -1.000000 0.718750 
-0.937500 -1.000000 0.750000 
-0.968750 -1.000000 0.750000 
-0.968750 -1.000000 0.718750 
-0.968750 -1.000000 0.750000 
-1.000000 -1.000000 0.750000 
-0.968750 -1.000000 0.687500 
-0.968750 -1.000000 0.656250 
-0.937500 -1.000000 0.656250 
-0.968750 -1.000000 0.656250 
-0.968750 -1.000000 0.625000 
-0.937500 -1.000000 0.625000 
-1.000000 -1.000000 0.656250 
-0.968750 -1.000000 0.656250 
-0.968750 -1.000000 0.656250 
-1.000000 -1.000000 0.656250 
-1.000000 -1.000000 0.625000 
-0.968750 -1.000000 0.625000 
-0.687500 -1.000000 0.687500 
-0.687500 -1.000000 0.656250 
-0.656250 -1.000000 0.656250 
-0.656250 -1.000000 0.687500 
-0.656250 -1.000000 0.687500 
-0.656250 -1.000000 0.656250 
-0.625000 -1.000000 0.656250 
-0.625000 -1.000000 0.687500 
-0.687500 -1.000000 0.625000 
-0.656250 -1.000000 0.625000 
-0.625000 -1.000000 0.625000 
-0.625000 -1.000000 0.656250 
-0.687500 -1.000000 0.687500 
-0.656250 -1.000000 0.687500 
-0.656250 -1.000000 0.718750 
-0.687500 -1.000000 0.718750 
-0.687500 -1.000000 0.718750 
-0.656250 -1.000000 0.718750 
-0.656250 -1.000000 0.750000 
-0.687500 -1.000000 0.750000 
-0.656250 -1.000000 0.687500 
-0.625000 -1.000000 0.687500 
-0.625000 -1.000000 0.718750 
-0.656250 -1.000000 0.718750 
-0.656250 -1.000000 0.718750 
-0.625000 -1.000000 0.718750 
-0.625000 -1.000000 0.750000 
-0.656250 -1.000000 0.750000 
-0.687500 -1.000000 0.687500 
-0.687500 -1.000000 0.718750 
-0.718750 -1.000000 0.718750 
-0.718750 -1.000000 0.687500 
-0.718750 -1.000000 0.687500 
-0.718750 -1.000000 0.718750 
-0.750000 -1.000000 0.718750 
-0.750000 -1.000000 0.687500 
-0.718750 -1.000000 0.750000 
-0.750000 -1.000000 0.750000 
-0.718750 -1.000000 0.687500 
-0.718750 -1.000000 0.656250 
-0.687500 -1.000000 0.656250 
-0.718750 -1.000000 0.656250 
-0.718750 -1.000000 0.625000 
-0.687500 -1.000000 0.625000 
-0.750000 -1.000000 0.656250 
-0.750000 -1.000000 0.625000 
-0.687500 -1.000000 0.937500 
-0.687500 -1.000000 0.906250 
-0.656250 -1.000000 0.906250 
-0.656250 -1.000000 0.937500 
-0.656250 -1.000000 0.937500 
-0.656250 -1.000000 0.906250 
-0.625000 -1.000000 0.906250 
-0.625000 -1.000000 0.937500 
-0.687500 -1.000000 0.875000 
-0.656250 -1.000000 0.875000 
-0.625000 -1.000000 0.875000 
-0.625000 -1.000000 0.906250 
-0.687500 -1.000000 0.937500 
-0.656250 -1.000000 0.937500 
-0.656250 -1.000000 0.968750 
-0.687500 -1.000000 0.968750 
-0.687500 -1.000000 0.968750 
-0.656250 -1.000000 0.968750 
-0.656250 -1.000000 1.000000 
-0.687500 -1.000000 1.000000 
-0.656250 -1.000000 0.937500 
-0.625000 -1.000000 0.937500 
-0.625000 -1.000000 0.968750 
-0.656250 -1.000000 0.968750 
-0.656250 -1.000000 0.968750 
-0.625000 -1.000000 0.968750 
-0.625000 -1.000000 1.000000 
-0.656250 -1.000000 1.000000 
-0.687500 -1.000000 0.937500 
-0.687500 -1.000000 0.968750 
-0.718750 -1.000000 0.968750 
-0.718750 -1.000000 0.937500 
-0.718750 -1.000000 0.937500 
-0.718750 -1.000000 0.968750 
-0.750000 -1.000000 0.968750 
-0.750000 -1.000000 0.937500 
-0.718750 -1.000000 1.000000 
-0.750000 -1.000000 1.000000 
-0.718750 -1.000000 0.937500 
-0.718750 -1.000000 0.906250 
-0.687500 -1.000000 0.906250 
-0.718750 -1.000000 0.906250 
-0.718750 -1.000000 0.875000 
-0.687500 -1.000000 0.875000 
-0.750000 -1.000000 0.906250 
-0.750000 -1.000000 0.875000 
1.000000 -0.937500 0.687500 
1.000000 -0.937500 0.656250 
1.000000 -0.906250 0.656250 
1.000000 -0.906250 0.687500 
1.000000 -0.875000 0.656250 
1.000000 -0.875000 0.687500 
1.000000 -0.937500 0.625000 
1.000000 -0.906250 0.625000 
1.000000 -0.875000 0.625000 
1.000000 -0.937500 0.687500 
1.000000 -0.906250 0.687500 
1.000000 -0.906250 0.718750 
0.999999 -0.937500 0.718750 
0.999999 -0.937500 0.718750 
1.000000 -0.906250 0.718750 
1.000000 -0.906250 0.750000 
0.999999 -0.937500 0.750000 
1.000000 -0.875000 0.718750 
1.000000 -0.906250 0.718750 
1.000000 -0.875000 0.750000 
1.000000 -0.906250 0.750000 
1.000000 -0.937500 0.687500 
0.999999 -0.937500 0.718750 
0.999999 -0.968750 0.718750 
1.000000 -0.968750 0.687500 
1.000000 -0.968750 0.687500 
0.999999 -0.968750 0.718750 
0.999999 -1.000000 0.718750 
0.999999 -1.000000 0.687500 
0.999999 -0.937500 0.750000 
0.999999 -0.968750 0.750000 
0.999999 -0.968750 0.718750 
0.999999 -0.968750 0.718750 
0.999999 -0.968750 0.750000 
0.999999 -1.000000 0.750000 
0.999999 -1.000000 0.718750 
1.000000 -0.968750 0.687500 
1.000000 -0.968750 0.656250 
1.000000 -0.968750 0.625000 
1.000000 -0.968750 0.687500 
0.999999 -1.000000 0.687500 
0.999999 -1.000000 0.656250 
1.000000 -0.968750 0.656250 
1.000000 -0.968750 0.656250 
0.999999 -1.000000 0.656250 
0.999999 -1.000000 0.625000 
1.000000 -0.968750 0.625000 
1.000000 -0.687500 0.687500 
1.000000 -0.687500 0.656250 
1.000000 -0.656250 0.656250 
1.000000 -0.656250 0.687500 
1.000000 -0.656250 0.687500 
1.000000 -0.656250 0.656250 
1.000000 -0.625000 0.656250 
1.000000 -0.625000 0.687500 
1.000000 -0.687500 0.656250 
1.000000 -0.687500 0.625000 
1.000000 -0.656250 0.625000 
1.000000 -0.625000 0.625000 
1.000000 -0.656250 0.718750 
1.000000 -0.687500 0.718750 
1.000000 -0.687500 0.718750 
1.000000 -0.656250 0.718750 
1.000000 -0.656250 0.750000 
1.000000 -0.687500 0.750000 
1.000000 -0.656250 0.687500 
1.000000 -0.625000 0.687500 
1.000000 -0.625000 0.718750 
1.000000 -0.656250 0.718750 
1.000000 -0.625000 0.718750 
1.000000 -0.625000 0.750000 
1.000000 -0.687500 0.687500 
1.000000 -0.718750 0.718750 
1.000000 -0.718750 0.687500 
1.000000 -0.750000 0.718750 
1.000000 -0.750000 0.687500 
1.000000 -0.718750 0.750000 
1.000000 -0.750000 0.750000 
1.000000 -0.687500 0.687500 
1.000000 -0.718750 0.687500 
1.000000 -0.718750 0.656250 
1.000000 -0.687500 0.656250 
1.000000 -0.687500 0.656250 
1.000000 -0.718750 0.656250 
1.000000 -0.718750 0.625000 
1.000000 -0.687500 0.625000 
1.000000 -0.718750 0.687500 
1.000000 -0.750000 0.687500 
1.000000 -0.750000 0.656250 
1.000000 -0.718750 0.656250 
1.000000 -0.750000 0.656250 
1.000000 -0.750000 0.625000 
1.000000 -0.718750 0.625000 
1.000000 -0.687501 0.937500 
1.000000 -0.687500 0.906250 
1.000000 -0.656250 0.906250 
1.000000 -0.656251 0.937500 
1.000000 -0.625000 0.906250 
1.000000 -0.625001 0.937500 
1.000000 -0.687500 0.875000 
1.000000 -0.656250 0.875000 
1.000000 -0.625000 0.875000 
1.000000 -0.656251 0.968750 
1.000000 -0.687501 0.968750 
1.000000 -0.656251 1.000000 
1.000000 -0.687501 1.000000 
1.000000 -0.625001 0.968750 
1.000000 -0.656251 0.968750 
1.000000 -0.625001 0.968750 
1.000000 -0.625001 1.000000 
1.000000 -0.656251 1.000000 
1.000000 -0.718751 0.968750 
1.000000 -0.718751 0.937500 
1.000000 -0.750001 0.968750 
1.000000 -0.750001 0.937500 
1.000000 -0.718751 1.000000 
1.000000 -0.750001 1.000000 
1.000000 -0.718750 0.906250 
1.000000 -0.718750 0.875000 
1.000000 -0.750000 0.906250 
1.000000 -0.750000 0.875000 
-0.687500 -0.937500 1.000000 
-0.656250 -0.937500 1.000000 
-0.656250 -0.906250 1.000000 
-0.687500 -0.906250 1.000000 
-0.656250 -0.875000 1.000000 
-0.687500 -0.875000 1.000000 
-0.625000 -0.937500 1.000000 
-0.625000 -0.906250 1.000000 
-0.625000 -0.875000 1.000000 
-0.718750 -0.906250 1.000000 
-0.718750 -0.937500 1.000000 
-0.750000 -0.906250 1.000000 
-0.750000 -0.937500 1.000000 
-0.718750 -0.875000 1.000000 
-0.750000 -0.875000 1.000000 
-0.718750 -0.968750 1.000000 
-0.687500 -0.968750 1.000000 
-0.718750 -1.000000 1.000000 
-0.687500 -1.000000 1.000000 
-0.750000 -0.968750 1.000000 
-0.750000 -1.000000 1.000000 
-0.656250 -0.968750 1.000000 
-0.625000 -0.968750 1.000000 
-0.656250 -1.000000 1.000000 
-0.625000 -1.000000 1.000000 
-0.687500 -0.687500 1.000000 
-0.656250 -0.687500 1.000000 
-0.656250 -0.656250 1.000000 
-0.687500 -0.656250 1.000000 
-0.656250 -0.625000 1.000000 
-0.687500 -0.625000 1.000000 
-0.625000 -0.687500 1.000000 
-0.625000 -0.656250 1.000000 
-0.625000 -0.625000 1.000000 
-0.718750 -0.656250 1.000000 
-0.718750 -0.687500 1.000000 
-0.750000 -0.656250 1.000000 
-0.750000 -0.687500 1.000000 
-0.718750 -0.625000 1.000000 
-0.750000 -0.625000 1.000000 
-0.718750 -0.718750 1.000000 
-0.687500 -0.718750 1.000000 
-0.718750 -0.750000 1.000000 
-0.687500 -0.750000 1.000000 
-0.750000 -0.718750 1.000000 
-0.750000 -0.750000 1.000000 
-0.656250 -0.718750 1.000000 
-0.625000 -0.718750 1.000000 
-0.656250 -0.750000 1.000000 
-0.625000 -0.750000 1.000000 
-0.937500 -0.687500 1.000000 
-0.906250 -0.687500 1.000000 
-0.906250 -0.656250 1.000000 
-0.937500 -0.656250 1.000000 
-0.906250 -0.625000 1.000000 
-0.937500 -0.625000 1.000000 
-0.875000 -0.687500 1.000000 
-0.875000 -0.656250 1.000000 
-0.875000 -0.625000 1.000000 
-0.968750 -0.656250 1.000000 
-0.968750 -0.687500 1.000000 
-1.000000 -0.656250 1.000000 
-1.000000 -0.687500 1.000000 
-0.968750 -0.625000 1.000000 
-1.000000 -0.625000 1.000000 
-0.968750 -0.718750 1.000000 
-0.937500 -0.718750 1.000000 
-0.968750 -0.750000 1.000000 
-0.937500 -0.750000 1.000000 
-1.000000 -0.718750 1.000000 
-1.000000 -0.750000 1.000000 
-0.906250 -0.718750 1.000000 
-0.875000 -0.718750 1.000000 
-0.906250 -0.750000 1.000000 
-0.875000 -0.750000 1.000000 
-0.937500 -0.687500 -1.000000 
-0.937500 -0.656250 -1.000000 
-0.906250 -0.656250 -1.000000 
-0.906250 -0.687500 -1.000000 
-0.875000 -0.656250 -1.000000 
-0.875000 -0.687500 -1.000000 
-0.937500 -0.625000 -1.000000 
-0.906250 -0.625000 -1.000000 
-0.875000 -0.625000 -1.000000 
-0.906250 -0.718750 -1.000000 
-0.937500 -0.718750 -1.000000 
-0.906250 -0.750000 -1.000000 
-0.937500 -0.750000 -1.000000 
-0.875000 -0.718750 -1.000000 
-0.875000 -0.750000 -1.000000 
-0.968750 -0.718750 -1.000000 
-0.968750 -0.687500 -1.000000 
-1.000000 -0.718750 -1.000000 
-1.000000 -0.687500 -1.000000 
-0.968750 -0.750000 -1.000000 
-1.000000 -0.750000 -1.000000 
-0.968750 -0.656250 -1.000000 
-0.968750 -0.625000 -1.000000 
-1.000000 -0.656250 -1.000000 
-1.000000 -0.625000 -1.000000 
-0.687500 -0.687500 -1.000000 
-0.687500 -0.656250 -1.000000 
-0.656250 -0.656250 -1.000000 
-0.656250 -0.687500 -1.000000 
-0.625000 -0.656250 -1.000000 
-0.625000 -0.687500 -1.000000 
-0.687500 -0.625000 -1.000000 
-0.656250 -0.625000 -1.000000 
-0.625000 -0.625000 -1.000000 
-0.656250 -0.718750 -1.000000 
-0.687500 -0.718750 -1.000000 
-0.656250 -0.750000 -1.000000 
-0.687500 -0.750000 -1.000000 
-0.625000 -0.718750 -1.000000 
-0.625000 -0.750000 -1.000000 
-0.718750 -0.718750 -1.000000 
-0.718750 -0.687500 -1.000000 
-0.750000 -0.718750 -1.000000 
-0.750000 -0.687500 -1.000000 
-0.718750 -0.750000 -1.000000 
-0.750000 -0.750000 -1.000000 
-0.718750 -0.656250 -1.000000 
-0.718750 -0.625000 -1.000000 
-0.750000 -0.656250 -1.000000 
-0.750000 -0.625000 -1.000000 
-0.687500 -0.937500 -1.000000 
-0.687500 -0.906250 -1.000000 
-0.656250 -0.906250 -1.000000 
-0.656250 -0.937500 -1.000000 
-0.625000 -0.906250 -1.000000 
-0.625000 -0.937500 -1.000000 
-0.687500 -0.875000 -1.000000 
-0.656250 -0.875000 -1.000000 
-0.625000 -0.875000 -1.000000 
-0.656250 -0.968750 -1.000000 
-0.687500 -0.968750 -1.000000 
-0.656250 -1.000000 -1.000000 
-0.687500 -1.000000 -1.000000 
-0.625000 -0.968750 -1.000000 
-0.625000 -1.000000 -1.000000 
-0.718750 -0.968750 -1.000000 
-0.718750 -0.937500 -1.000000 
-0.750000 -0.968750 -1.000000 
-0.750000 -0.937500 -1.000000 
-0.718750 -1.000000 -1.000000 
-0.750000 -1.000000 -1.000000 
-0.718750 -0.906250 -1.000000 
-0.718750 -0.875000 -1.000000 
-0.750000 -0.906250 -1.000000 
-0.750000 -0.875000 -1.000000 
-0.687500 -0.812500 -1.000000 
-0.687500 -0.781250 -1.000000 
-0.656250 -0.781250 -1.000000 
-0.656250 -0.812500 -1.000000 
-0.625000 -0.781250 -1.000000 
-0.625000 -0.812500 -1.000000 
-0.656250 -0.843750 -1.000000 
-0.687500 -0.843750 -1.000000 
-0.625000 -0.843750 -1.000000 
-0.718750 -0.843750 -1.000000 
-0.718750 -0.812500 -1.000000 
-0.750000 -0.843750 -1.000000 
-0.750000 -0.812500 -1.000000 
-0.718750 -0.781250 -1.000000 
-0.750000 -0.781250 -1.000000 
-0.562500 -0.812500 -1.000000 
-0.562500 -0.781250 -1.000000 
-0.531250 -0.781250 -1.000000 
-0.531250 -0.812500 -1.000000 
-0.500000 -0.781250 -1.000000 
-0.500000 -0.812500 -1.000000 
-0.562500 -0.750000 -1.000000 
-0.531250 -0.750000 -1.000000 
-0.531250 -0.843750 -1.000000 
-0.562500 -0.843750 -1.000000 
-0.531250 -0.875000 -1.000000 
-0.562500 -0.875000 -1.000000 
-0.500000 -0.843750 -1.000000 
-0.593750 -0.843750 -1.000000 
-0.593750 -0.812500 -1.000000 
-0.593750 -0.875000 -1.000000 
-0.593750 -0.781250 -1.000000 
-0.593750 -0.750000 -1.000000 
-0.562500 -0.937500 -1.000000 
-0.562500 -0.906250 -1.000000 
-0.531250 -0.906250 -1.000000 
-0.531250 -0.937500 -1.000000 
-0.531250 -0.968750 -1.000000 
-0.562500 -0.968750 -1.000000 
-0.531250 -1.000000 -1.000000 
-0.562500 -1.000000 -1.000000 
-0.593750 -0.968750 -1.000000 
-0.593750 -0.937500 -1.000000 
-0.593750 -1.000000 -1.000000 
-0.593750 -0.906250 -1.000000 
-0.687500 -0.562500 -1.000000 
-0.687500 -0.531250 -1.000000 
-0.656250 -0.531250 -1.000000 
-0.656250 -0.562500 -1.000000 
-0.625000 -0.531250 -1.000000 
-0.625000 -0.562500 -1.000000 
-0.656250 -0.593750 -1.000000 
-0.687500 -0.593750 -1.000000 
-0.625000 -0.593750 -1.000000 
-0.718750 -0.593750 -1.000000 
-0.718750 -0.562500 -1.000000 
-0.750000 -0.593750 -1.000000 
-0.750000 -0.562500 -1.000000 
-0.718750 -0.531250 -1.000000 
-0.750000 -0.531250 -1.000000 
-0.562500 -0.562500 -1.000000 
-0.562500 -0.531250 -1.000000 
-0.531250 -0.531250 -1.000000 
-0.531250 -0.562500 -1.000000 
-0.500000 -0.531250 -1.000000 
-0.500000 -0.562500 -1.000000 
-0.562500 -0.500000 -1.000000 
-0.531250 -0.500000 -1.000000 
-0.531250 -0.593750 -1.000000 
-0.562500 -0.593750 -1.000000 
-0.531250 -0.625000 -1.000000 
-0.562500 -0.625000 -1.000000 
-0.500000 -0.593750 -1.000000 
-0.593750 -0.593750 -1.000000 
-0.593750 -0.562500 -1.000000 
-0.593750 -0.625000 -1.000000 
-0.593750 -0.531250 -1.000000 
-0.593750 -0.500000 -1.000000 
-0.562500 -0.687500 -1.000000 
-0.562500 -0.656250 -1.000000 
-0.531250 -0.656250 -1.000000 
-0.531250 -0.687500 -1.000000 
-0.531250 -0.718750 -1.000000 
-0.562500 -0.718750 -1.000000 
-0.593750 -0.718750 -1.000000 
-0.593750 -0.687500 -1.000000 
-0.593750 -0.656250 -1.000000 
-0.937500 -0.562500 -1.000000 
-0.937500 -0.531250 -1.000000 
-0.906250 -0.531250 -1.000000 
-0.906250 -0.562500 -1.000000 
-0.875000 -0.531250 -1.000000 
-0.875000 -0.562500 -1.000000 
-0.906250 -0.593750 -1.000000 
-0.937500 -0.593750 -1.000000 
-0.875000 -0.593750 -1.000000 
-0.968750 -0.593750 -1.000000 
-0.968750 -0.562500 -1.000000 
-1.000000 -0.593750 -1.000000 
-1.000000 -0.562500 -1.000000 
-0.968750 -0.531250 -1.000000 
-1.000000 -0.531250 -1.000000 
-0.812500 -0.562500 -1.000000 
-0.812500 -0.531250 -1.000000 
-0.781250 -0.531250 -1.000000 
-0.781250 -0.562500 -1.000000 
-0.812500 -0.500000 -1.000000 
-0.781250 -0.500000 -1.000000 
-0.781250 -0.593750 -1.000000 
-0.812500 -0.593750 -1.000000 
-0.781250 -0.625000 -1.000000 
-0.812500 -0.625000 -1.000000 
-0.843750 -0.593750 -1.000000 
-0.843750 -0.562500 -1.000000 
-0.843750 -0.625000 -1.000000 
-0.843750 -0.531250 -1.000000 
-0.843750 -0.500000 -1.000000 
-0.812500 -0.687500 -1.000000 
-0.812500 -0.656250 -1.000000 
-0.781250 -0.656250 -1.000000 
-0.781250 -0.687500 -1.000000 
-0.781250 -0.718750 -1.000000 
-0.812500 -0.718750 -1.000000 
-0.781250 -0.750000 -1.000000 
-0.812500 -0.750000 -1.000000 
-0.843750 -0.718750 -1.000000 
-0.843750 -0.687500 -1.000000 
-0.843750 -0.750000 -1.000000 
-0.843750 -0.656250 -1.000000 
-0.812500 -0.687500 1.000000 
-0.781250 -0.687500 1.000000 
-0.781250 -0.656250 1.000000 
-0.812500 -0.656250 1.000000 
-0.781250 -0.625000 1.000000 
-0.812500 -0.625000 1.000000 
-0.843750 -0.656250 1.000000 
-0.843750 -0.687500 1.000000 
-0.843750 -0.625000 1.000000 
-0.843750 -0.718750 1.000000 
-0.812500 -0.718750 1.000000 
-0.843750 -0.750000 1.000000 
-0.812500 -0.750000 1.000000 
-0.781250 -0.718750 1.000000 
-0.781250 -0.750000 1.000000 
-0.812500 -0.562500 1.000000 
-0.781250 -0.562500 1.000000 
-0.781250 -0.531250 1.000000 
-0.812500 -0.531250 1.000000 
-0.781250 -0.500000 1.000000 
-0.812500 -0.500000 1.000000 
-0.750000 -0.562500 1.000000 
-0.750000 -0.531250 1.000000 
-0.843750 -0.531250 1.000000 
-0.843750 -0.562500 1.000000 
-0.875000 -0.531250 1.000000 
-0.875000 -0.562500 1.000000 
-0.843750 -0.500000 1.000000 
-0.843750 -0.593750 1.000000 
-0.812500 -0.593750 1.000000 
-0.875000 -0.593750 1.000000 
-0.781250 -0.593750 1.000000 
-0.750000 -0.593750 1.000000 
-0.937500 -0.562500 1.000000 
-0.906250 -0.562500 1.000000 
-0.906250 -0.531250 1.000000 
-0.937500 -0.531250 1.000000 
-0.968750 -0.531250 1.000000 
-0.968750 -0.562500 1.000000 
-1.000000 -0.531250 1.000000 
-1.000000 -0.562500 1.000000 
-0.968750 -0.593750 1.000000 
-0.937500 -0.593750 1.000000 
-1.000000 -0.593750 1.000000 
-0.906250 -0.593750 1.000000 
-0.562500 -0.687500 1.000000 
-0.531250 -0.687500 1.000000 
-0.531250 -0.656250 1.000000 
-0.562500 -0.656250 1.000000 
-0.531250 -0.625000 1.000000 
-0.562500 -0.625000 1.000000 
-0.593750 -0.656250 1.000000 
-0.593750 -0.687500 1.000000 
-0.593750 -0.625000 1.000000 
-0.593750 -0.718750 1.000000 
-0.562500 -0.718750 1.000000 
-0.593750 -0.750000 1.000000 
-0.562500 -0.750000 1.000000 
-0.531250 -0.718750 1.000000 
-0.531250 -0.750000 1.000000 
-0.562500 -0.562500 1.000000 
-0.531250 -0.562500 1.000000 
-0.531250 -0.531250 1.000000 
-0.562500 -0.531250 1.000000 
-0.531250 -0.500000 1.000000 
-0.562500 -0.500000 1.000000 
-0.500000 -0.562500 1.000000 
-0.500000 -0.531250 1.000000 
-0.593750 -0.531250 1.000000 
-0.593750 -0.562500 1.000000 
-0.625000 -0.531250 1.000000 
-0.625000 -0.562500 1.000000 
-0.593750 -0.500000 1.000000 
-0.593750 -0.593750 1.000000 
-0.562500 -0.593750 1.000000 
-0.625000 -0.593750 1.000000 
-0.531250 -0.593750 1.000000 
-0.500000 -0.593750 1.000000 
-0.687500 -0.562500 1.000000 
-0.656250 -0.562500 1.000000 
-0.656250 -0.531250 1.000000 
-0.687500 -0.531250 1.000000 
-0.718750 -0.531250 1.000000 
-0.718750 -0.562500 1.000000 
-0.718750 -0.593750 1.000000 
-0.687500 -0.593750 1.000000 
-0.656250 -0.593750 1.000000 
-0.562500 -0.937500 1.000000 
-0.531250 -0.937500 1.000000 
-0.531250 -0.906250 1.000000 
-0.562500 -0.906250 1.000000 
-0.531250 -0.875000 1.000000 
-0.562500 -0.875000 1.000000 
-0.593750 -0.906250 1.000000 
-0.593750 -0.937500 1.000000 
-0.593750 -0.875000 1.000000 
-0.593750 -0.968750 1.000000 
-0.562500 -0.968750 1.000000 
-0.593750 -1.000000 1.000000 
-0.562500 -1.000000 1.000000 
-0.531250 -0.968750 1.000000 
-0.531250 -1.000000 1.000000 
-0.562500 -0.812500 1.000000 
-0.531250 -0.812500 1.000000 
-0.531250 -0.781250 1.000000 
-0.562500 -0.781250 1.000000 
-0.500000 -0.812500 1.000000 
-0.500000 -0.781250 1.000000 
-0.593750 -0.781250 1.000000 
-0.593750 -0.812500 1.000000 
-0.625000 -0.781250 1.000000 
-0.625000 -0.812500 1.000000 
-0.593750 -0.843750 1.000000 
-0.562500 -0.843750 1.000000 
-0.625000 -0.843750 1.000000 
-0.531250 -0.843750 1.000000 
-0.500000 -0.843750 1.000000 
-0.687500 -0.812500 1.000000 
-0.656250 -0.812500 1.000000 
-0.656250 -0.781250 1.000000 
-0.687500 -0.781250 1.000000 
-0.718750 -0.781250 1.000000 
-0.718750 -0.812500 1.000000 
-0.750000 -0.781250 1.000000 
-0.750000 -0.812500 1.000000 
-0.718750 -0.843750 1.000000 
-0.687500 -0.843750 1.000000 
-0.750000 -0.843750 1.000000 
-0.656250 -0.843750 1.000000 
1.000000 -0.687500 0.812500 
1.000000 -0.687500 0.781250 
1.000000 -0.656250 0.781250 
1.000000 -0.656250 0.812500 
1.000000 -0.625000 0.781250 
1.000000 -0.625000 0.812500 
1.000000 -0.656250 0.843750 
1.000000 -0.687500 0.843750 
1.000000 -0.625000 0.843750 
1.000000 -0.718750 0.843750 
1.000000 -0.718750 0.812500 
1.000000 -0.750000 0.843750 
1.000000 -0.750000 0.812500 
1.000000 -0.718750 0.781250 
1.000000 -0.750000 0.781250 
1.000000 -0.562500 0.812500 
1.000000 -0.562500 0.781250 
1.000000 -0.531250 0.781250 
1.000000 -0.531250 0.812500 
1.000000 -0.500000 0.781250 
1.000000 -0.500000 0.812500 
1.000000 -0.562500 0.750000 
1.000000 -0.531250 0.750000 
1.000000 -0.562500 0.812500 
1.000000 -0.531250 0.812500 
1.000000 -0.531250 0.843750 
1.000000 -0.562500 0.843750 
1.000000 -0.562500 0.843750 
1.000000 -0.531250 0.843750 
1.000000 -0.531250 0.875000 
1.000000 -0.562500 0.875000 
1.000000 -0.500000 0.843750 
1.000000 -0.531250 0.843750 
1.000000 -0.531250 0.875000 
1.000000 -0.593750 0.843750 
1.000000 -0.593750 0.812500 
1.000000 -0.593750 0.812500 
1.000000 -0.593750 0.843750 
1.000000 -0.562500 0.843750 
1.000000 -0.562500 0.875000 
1.000000 -0.593750 0.875000 
1.000000 -0.593750 0.843750 
1.000000 -0.593750 0.875000 
1.000000 -0.562500 0.812500 
1.000000 -0.593750 0.812500 
1.000000 -0.593750 0.781250 
1.000000 -0.562500 0.781250 
1.000000 -0.562500 0.781250 
1.000000 -0.593750 0.781250 
1.000000 -0.593750 0.750000 
1.000000 -0.562500 0.750000 
1.000000 -0.593750 0.812500 
1.000000 -0.625000 0.812500 
1.000000 -0.625000 0.781250 
1.000000 -0.625000 0.781250 
1.000000 -0.625000 0.750000 
1.000000 -0.593750 0.750000 
1.000000 -0.562500 0.937500 
1.000000 -0.562500 0.906250 
1.000000 -0.531250 0.906250 
1.000000 -0.531250 0.937500 
1.000000 -0.531250 0.937500 
1.000000 -0.531250 0.906250 
1.000000 -0.562500 0.875000 
1.000000 -0.531250 0.875000 
1.000000 -0.562500 0.937500 
1.000000 -0.531250 0.937500 
1.000000 -0.531251 0.968750 
1.000000 -0.562501 0.968750 
1.000000 -0.562501 0.968750 
1.000000 -0.531251 0.968750 
1.000000 -0.531251 1.000000 
1.000000 -0.562501 1.000000 
1.000000 -0.562500 0.937500 
1.000000 -0.562501 0.968750 
1.000000 -0.593751 0.968750 
1.000000 -0.593750 0.937500 
1.000000 -0.593750 0.937500 
1.000000 -0.593751 0.968750 
1.000000 -0.562501 0.968750 
1.000000 -0.562501 1.000000 
1.000000 -0.593751 1.000000 
1.000000 -0.593751 0.968750 
1.000000 -0.593751 0.968750 
1.000000 -0.593751 1.000000 
1.000000 -0.625001 1.000000 
1.000000 -0.625001 0.968750 
1.000000 -0.593750 0.937500 
1.000000 -0.593750 0.906250 
1.000000 -0.593750 0.875000 
1.000000 -0.593750 0.906250 
1.000000 -0.687500 0.562500 
1.000000 -0.687500 0.531250 
1.000000 -0.656250 0.531250 
1.000000 -0.656250 0.562500 
1.000000 -0.625000 0.531250 
1.000000 -0.625000 0.562500 
1.000000 -0.687500 0.500000 
1.000000 -0.656250 0.500000 
1.000000 -0.656250 0.531250 
1.000000 -0.625000 0.531250 
1.000000 -0.656250 0.593750 
1.000000 -0.687500 0.593750 
1.000000 -0.625000 0.593750 
1.000000 -0.718750 0.593750 
1.000000 -0.718750 0.562500 
1.000000 -0.750000 0.593750 
1.000000 -0.750000 0.562500 
1.000000 -0.718750 0.625000 
1.000000 -0.718750 0.593750 
1.000000 -0.750000 0.625000 
1.000000 -0.750000 0.593750 
1.000000 -0.718750 0.531250 
1.000000 -0.750000 0.531250 
1.000000 -0.562500 0.562500 
1.000000 -0.562500 0.531250 
1.000000 -0.531250 0.531250 
1.000000 -0.531250 0.562500 
1.000000 -0.531250 0.562500 
1.000000 -0.531250 0.531250 
1.000000 -0.500000 0.531250 
1.000000 -0.500000 0.562500 
1.000000 -0.562500 0.531250 
1.000000 -0.562500 0.500000 
1.000000 -0.531250 0.500000 
1.000000 -0.531250 0.531250 
1.000000 -0.531250 0.500000 
1.000000 -0.500000 0.500000 
1.000000 -0.562500 0.562500 
1.000000 -0.531250 0.593750 
1.000000 -0.562500 0.593750 
1.000000 -0.562500 0.593750 
1.000000 -0.531250 0.593750 
1.000000 -0.531250 0.625000 
1.000000 -0.562500 0.625000 
1.000000 -0.500000 0.593750 
1.000000 -0.531250 0.593750 
1.000000 -0.500000 0.593750 
1.000000 -0.500000 0.625000 
1.000000 -0.531250 0.625000 
1.000000 -0.562500 0.562500 
1.000000 -0.562500 0.593750 
1.000000 -0.593750 0.593750 
1.000000 -0.593750 0.562500 
1.000000 -0.593750 0.562500 
1.000000 -0.593750 0.593750 
1.000000 -0.562500 0.593750 
1.000000 -0.562500 0.625000 
1.000000 -0.593750 0.625000 
1.000000 -0.593750 0.593750 
1.000000 -0.593750 0.625000 
1.000000 -0.593750 0.562500 
1.000000 -0.593750 0.531250 
1.000000 -0.562500 0.531250 
1.000000 -0.593750 0.531250 
1.000000 -0.593750 0.500000 
1.000000 -0.562500 0.500000 
1.000000 -0.593750 0.531250 
1.000000 -0.625000 0.531250 
1.000000 -0.625000 0.500000 
1.000000 -0.562500 0.687500 
1.000000 -0.562500 0.656250 
1.000000 -0.531250 0.656250 
1.000000 -0.531250 0.687500 
1.000000 -0.562500 0.625000 
1.000000 -0.531250 0.625000 
1.000000 -0.531250 0.656250 
1.000000 -0.500000 0.656250 
1.000000 -0.531250 0.718750 
1.000000 -0.562500 0.718750 
1.000000 -0.593750 0.718750 
1.000000 -0.593750 0.687500 
1.000000 -0.593750 0.687500 
1.000000 -0.593750 0.718750 
1.000000 -0.625000 0.718750 
1.000000 -0.625000 0.687500 
1.000000 -0.593750 0.750000 
1.000000 -0.593750 0.718750 
1.000000 -0.593750 0.750000 
1.000000 -0.625000 0.750000 
1.000000 -0.625000 0.718750 
1.000000 -0.593750 0.656250 
1.000000 -0.937500 0.562500 
1.000000 -0.937500 0.531250 
1.000000 -0.906250 0.531250 
1.000000 -0.906250 0.562500 
1.000000 -0.875000 0.531250 
1.000000 -0.875000 0.562500 
1.000000 -0.906250 0.593750 
1.000000 -0.937500 0.593750 
1.000000 -0.875000 0.593750 
1.000000 -0.968750 0.593750 
1.000000 -0.968750 0.562500 
1.000000 -1.000000 0.593750 
1.000000 -1.000000 0.562500 
1.000000 -0.968750 0.593750 
1.000000 -0.968750 0.625000 
0.999999 -1.000000 0.625000 
1.000000 -1.000000 0.593750 
1.000000 -0.968750 0.531250 
1.000000 -1.000000 0.531250 
1.000000 -0.812500 0.562500 
1.000000 -0.812500 0.531250 
1.000000 -0.781250 0.531250 
1.000000 -0.781250 0.562500 
1.000000 -0.781250 0.562500 
1.000000 -0.781250 0.531250 
1.000000 -0.812500 0.531250 
1.000000 -0.812500 0.500000 
1.000000 -0.781250 0.500000 
1.000000 -0.781250 0.531250 
1.000000 -0.781250 0.500000 
1.000000 -0.812500 0.562500 
1.000000 -0.781250 0.562500 
1.000000 -0.781250 0.593750 
1.000000 -0.812500 0.593750 
1.000000 -0.812500 0.593750 
1.000000 -0.781250 0.593750 
1.000000 -0.781250 0.625000 
1.000000 -0.812500 0.625000 
1.000000 -0.750000 0.562500 
1.000000 -0.750000 0.593750 
1.000000 -0.781250 0.593750 
1.000000 -0.750000 0.593750 
1.000000 -0.750000 0.625000 
1.000000 -0.781250 0.625000 
1.000000 -0.812500 0.562500 
1.000000 -0.843750 0.593750 
1.000000 -0.843750 0.562500 
1.000000 -0.843750 0.625000 
1.000000 -0.812500 0.562500 
1.000000 -0.843750 0.562500 
1.000000 -0.843750 0.531250 
1.000000 -0.812500 0.531250 
1.000000 -0.843750 0.531250 
1.000000 -0.843750 0.500000 
1.000000 -0.843750 0.531250 
1.000000 -0.843750 0.500000 
1.000000 -0.812500 0.687500 
1.000000 -0.812500 0.656250 
1.000000 -0.781250 0.656250 
1.000000 -0.781250 0.687500 
1.000000 -0.750000 0.656250 
1.000000 -0.781250 0.656250 
1.000000 -0.781250 0.625000 
1.000000 -0.781250 0.718750 
1.000000 -0.812500 0.718750 
1.000000 -0.781250 0.750000 
1.000000 -0.812500 0.750000 
1.000000 -0.843750 0.718750 
1.000000 -0.843750 0.687500 
1.000000 -0.843750 0.750000 
1.000000 -0.843750 0.656250 
-0.687500 -1.000000 0.812500 
-0.687500 -1.000000 0.781250 
-0.656250 -1.000000 0.781250 
-0.656250 -1.000000 0.812500 
-0.656250 -1.000000 0.812500 
-0.656250 -1.000000 0.781250 
-0.625000 -1.000000 0.781250 
-0.625000 -1.000000 0.812500 
-0.687500 -1.000000 0.750000 
-0.656250 -1.000000 0.750000 
-0.625000 -1.000000 0.750000 
-0.625000 -1.000000 0.781250 
-0.687500 -1.000000 0.812500 
-0.656250 -1.000000 0.812500 
-0.656250 -1.000000 0.843750 
-0.687500 -1.000000 0.843750 
-0.687500 -1.000000 0.843750 
-0.656250 -1.000000 0.843750 
-0.656250 -1.000000 0.875000 
-0.656250 -1.000000 0.812500 
-0.625000 -1.000000 0.812500 
-0.625000 -1.000000 0.843750 
-0.656250 -1.000000 0.843750 
-0.656250 -1.000000 0.843750 
-0.625000 -1.000000 0.843750 
-0.625000 -1.000000 0.875000 
-0.656250 -1.000000 0.875000 
-0.687500 -1.000000 0.812500 
-0.687500 -1.000000 0.843750 
-0.718750 -1.000000 0.843750 
-0.718750 -1.000000 0.812500 
-0.718750 -1.000000 0.812500 
-0.718750 -1.000000 0.843750 
-0.750000 -1.000000 0.843750 
-0.750000 -1.000000 0.812500 
-0.718750 -1.000000 0.812500 
-0.718750 -1.000000 0.781250 
-0.687500 -1.000000 0.781250 
-0.718750 -1.000000 0.781250 
-0.750000 -1.000000 0.781250 
-0.562500 -1.000000 0.812500 
-0.562500 -1.000000 0.781250 
-0.531250 -1.000000 0.781250 
-0.531250 -1.000000 0.812500 
-0.531250 -1.000000 0.812500 
-0.531250 -1.000000 0.781250 
-0.500000 -1.000000 0.781250 
-0.500000 -1.000000 0.812500 
-0.562500 -1.000000 0.750000 
-0.531250 -1.000000 0.750000 
-0.531250 -1.000000 0.781250 
-0.531250 -1.000000 0.750000 
-0.500000 -1.000000 0.750000 
-0.500000 -1.000000 0.781250 
-0.562500 -1.000000 0.812500 
-0.531250 -1.000000 0.812500 
-0.531250 -1.000000 0.843750 
-0.562500 -1.000000 0.843750 
-0.562500 -1.000000 0.843750 
-0.531250 -1.000000 0.843750 
-0.531250 -1.000000 0.875000 
-0.562500 -1.000000 0.875000 
-0.531250 -1.000000 0.812500 
-0.500000 -1.000000 0.812500 
-0.500000 -1.000000 0.843750 
-0.531250 -1.000000 0.843750 
-0.531250 -1.000000 0.843750 
-0.500000 -1.000000 0.843750 
-0.500000 -1.000000 0.875000 
-0.531250 -1.000000 0.875000 
-0.562500 -1.000000 0.812500 
-0.562500 -1.000000 0.843750 
-0.593750 -1.000000 0.843750 
-0.593750 -1.000000 0.812500 
-0.593750 -1.000000 0.812500 
-0.593750 -1.000000 0.843750 
-0.625000 -1.000000 0.843750 
-0.562500 -1.000000 0.843750 
-0.562500 -1.000000 0.875000 
-0.593750 -1.000000 0.875000 
-0.593750 -1.000000 0.843750 
-0.593750 -1.000000 0.875000 
-0.625000 -1.000000 0.875000 
-0.593750 -1.000000 0.781250 
-0.593750 -1.000000 0.750000 
-0.625000 -1.000000 0.750000 
-0.562500 -1.000000 0.937500 
-0.562500 -1.000000 0.906250 
-0.531250 -1.000000 0.906250 
-0.531250 -1.000000 0.937500 
-0.500000 -1.000000 0.906250 
-0.500000 -1.000000 0.937500 
-0.562500 -1.000000 0.875000 
-0.531250 -1.000000 0.875000 
-0.531250 -1.000000 0.906250 
-0.500000 -1.000000 0.906250 
-0.531250 -1.000000 0.968750 
-0.562500 -1.000000 0.968750 
-0.562500 -1.000000 0.968750 
-0.531250 -1.000000 0.968750 
-0.531250 -1.000000 1.000000 
-0.562500 -1.000000 1.000000 
-0.500000 -1.000000 0.968750 
-0.500000 -1.000000 0.968750 
-0.500000 -1.000000 1.000000 
-0.562500 -1.000000 0.937500 
-0.562500 -1.000000 0.968750 
-0.593750 -1.000000 0.968750 
-0.593750 -1.000000 0.937500 
-0.593750 -1.000000 0.937500 
-0.593750 -1.000000 0.968750 
-0.625000 -1.000000 0.968750 
-0.625000 -1.000000 0.937500 
-0.562500 -1.000000 0.968750 
-0.562500 -1.000000 1.000000 
-0.593750 -1.000000 1.000000 
-0.593750 -1.000000 0.968750 
-0.593750 -1.000000 0.968750 
-0.593750 -1.000000 1.000000 
-0.625000 -1.000000 1.000000 
-0.625000 -1.000000 0.968750 
-0.562500 -1.000000 0.937500 
-0.593750 -1.000000 0.937500 
-0.593750 -1.000000 0.906250 
-0.562500 -1.000000 0.906250 
-0.593750 -1.000000 0.906250 
-0.593750 -1.000000 0.906250 
-0.687500 -1.000000 0.562500 
-0.687500 -1.000000 0.531250 
-0.656250 -1.000000 0.531250 
-0.656250 -1.000000 0.562500 
-0.656250 -1.000000 0.562500 
-0.656250 -1.000000 0.531250 
-0.625000 -1.000000 0.531250 
-0.625000 -1.000000 0.562500 
-0.687500 -1.000000 0.500000 
-0.656250 -1.000000 0.500000 
-0.625000 -1.000000 0.500000 
-0.625000 -1.000000 0.531250 
-0.687500 -1.000000 0.562500 
-0.656250 -1.000000 0.562500 
-0.656250 -1.000000 0.593750 
-0.687500 -1.000000 0.593750 
-0.687500 -1.000000 0.593750 
-0.656250 -1.000000 0.593750 
-0.656250 -1.000000 0.625000 
-0.656250 -1.000000 0.562500 
-0.625000 -1.000000 0.562500 
-0.625000 -1.000000 0.593750 
-0.656250 -1.000000 0.593750 
-0.656250 -1.000000 0.593750 
-0.625000 -1.000000 0.593750 
-0.625000 -1.000000 0.625000 
-0.656250 -1.000000 0.625000 
-0.687500 -1.000000 0.562500 
-0.687500 -1.000000 0.593750 
-0.718750 -1.000000 0.593750 
-0.718750 -1.000000 0.562500 
-0.718750 -1.000000 0.562500 
-0.718750 -1.000000 0.593750 
-0.750000 -1.000000 0.593750 
-0.750000 -1.000000 0.562500 
-0.718750 -1.000000 0.562500 
-0.718750 -1.000000 0.531250 
-0.687500 -1.000000 0.531250 
-0.718750 -1.000000 0.531250 
-0.750000 -1.000000 0.531250 
-0.562500 -1.000000 0.562500 
-0.562500 -1.000000 0.531250 
-0.531250 -1.000000 0.531250 
-0.531250 -1.000000 0.562500 
-0.531250 -1.000000 0.562500 
-0.531250 -1.000000 0.531250 
-0.500000 -1.000000 0.531250 
-0.500000 -1.000000 0.562500 
-0.562500 -1.000000 0.500000 
-0.531250 -1.000000 0.500000 
-0.531250 -1.000000 0.531250 
-0.531250 -1.000000 0.500000 
-0.500000 -1.000000 0.500000 
-0.500000 -1.000000 0.531250 
-0.562500 -1.000000 0.562500 
-0.531250 -1.000000 0.562500 
-0.531250 -1.000000 0.593750 
-0.562500 -1.000000 0.593750 
-0.562500 -1.000000 0.593750 
-0.531250 -1.000000 0.593750 
-0.531250 -1.000000 0.625000 
-0.562500 -1.000000 0.625000 
-0.531250 -1.000000 0.562500 
-0.500000 -1.000000 0.562500 
-0.500000 -1.000000 0.593750 
-0.531250 -1.000000 0.593750 
-0.531250 -1.000000 0.593750 
-0.500000 -1.000000 0.593750 
-0.500000 -1.000000 0.625000 
-0.531250 -1.000000 0.625000 
-0.562500 -1.000000 0.562500 
-0.562500 -1.000000 0.593750 
-0.593750 -1.000000 0.593750 
-0.593750 -1.000000 0.562500 
-0.593750 -1.000000 0.562500 
-0.593750 -1.000000 0.593750 
-0.625000 -1.000000 0.593750 
-0.562500 -1.000000 0.593750 
-0.562500 -1.000000 0.625000 
-0.593750 -1.000000 0.625000 
-0.593750 -1.000000 0.593750 
-0.593750 -1.000000 0.625000 
-0.625000 -1.000000 0.625000 
-0.593750 -1.000000 0.531250 
-0.593750 -1.000000 0.500000 
-0.625000 -1.000000 0.500000 
-0.562500 -1.000000 0.687500 
-0.562500 -1.000000 0.656250 
-0.531250 -1.000000 0.656250 
-0.531250 -1.000000 0.687500 
-0.500000 -1.000000 0.656250 
-0.500000 -1.000000 0.687500 
-0.562500 -1.000000 0.625000 
-0.531250 -1.000000 0.625000 
-0.531250 -1.000000 0.656250 
-0.500000 -1.000000 0.656250 
-0.531250 -1.000000 0.718750 
-0.562500 -1.000000 0.718750 
-0.500000 -1.000000 0.718750 
-0.500000 -1.000000 0.750000 
-0.593750 -1.000000 0.718750 
-0.593750 -1.000000 0.687500 
-0.625000 -1.000000 0.718750 
-0.593750 -1.000000 0.656250 
-0.937500 -1.000000 0.562500 
-0.937500 -1.000000 0.531250 
-0.906250 -1.000000 0.531250 
-0.906250 -1.000000 0.562500 
-0.906250 -1.000000 0.562500 
-0.906250 -1.000000 0.531250 
-0.875000 -1.000000 0.531250 
-0.875000 -1.000000 0.562500 
-0.937500 -1.000000 0.531250 
-0.906250 -1.000000 0.593750 
-0.937500 -1.000000 0.593750 
-0.937500 -1.000000 0.593750 
-0.906250 -1.000000 0.593750 
-0.937500 -1.000000 0.625000 
-0.875000 -1.000000 0.562500 
-0.875000 -1.000000 0.593750 
-0.875000 -1.000000 0.625000 
-0.937500 -1.000000 0.562500 
-0.968750 -1.000000 0.593750 
-0.968750 -1.000000 0.562500 
-0.968750 -1.000000 0.562500 
-0.968750 -1.000000 0.593750 
-1.000000 -1.000000 0.593750 
-1.000000 -1.000000 0.562500 
-0.968750 -1.000000 0.625000 
-0.968750 -1.000000 0.625000 
-1.000000 -1.000000 0.625000 
-0.937500 -1.000000 0.562500 
-0.968750 -1.000000 0.562500 
-0.968750 -1.000000 0.531250 
-0.937500 -1.000000 0.531250 
-0.968750 -1.000000 0.531250 
-0.968750 -1.000000 0.562500 
-1.000000 -1.000000 0.562500 
-1.000000 -1.000000 0.531250 
-0.968750 -1.000000 0.531250 
-1.000000 -1.000000 0.500000 
-0.968750 -1.000000 0.500000 
-0.812500 -1.000000 0.562500 
-0.812500 -1.000000 0.531250 
-0.781250 -1.000000 0.531250 
-0.781250 -1.000000 0.562500 
-0.812500 -1.000000 0.500000 
-0.781250 -1.000000 0.500000 
-0.781250 -1.000000 0.593750 
-0.812500 -1.000000 0.593750 
-0.781250 -1.000000 0.625000 
-0.812500 -1.000000 0.625000 
-0.843750 -1.000000 0.593750 
-0.843750 -1.000000 0.562500 
-0.875000 -1.000000 0.593750 
-0.843750 -1.000000 0.625000 
-0.843750 -1.000000 0.593750 
-0.843750 -1.000000 0.625000 
-0.843750 -1.000000 0.531250 
-0.843750 -1.000000 0.500000 
-0.812500 -1.000000 0.687500 
-0.812500 -1.000000 0.656250 
-0.781250 -1.000000 0.656250 
-0.781250 -1.000000 0.687500 
-0.781250 -1.000000 0.718750 
-0.812500 -1.000000 0.718750 
-0.781250 -1.000000 0.750000 
-0.812500 -1.000000 0.750000 
-0.843750 -1.000000 0.718750 
-0.843750 -1.000000 0.687500 
-0.843750 -1.000000 0.687500 
-0.843750 -1.000000 0.718750 
-0.875000 -1.000000 0.718750 
-0.875000 -1.000000 0.687500 
-0.843750 -1.000000 0.750000 
-0.843750 -1.000000 0.750000 
-0.875000 -1.000000 0.750000 
-0.843750 -1.000000 0.656250 
-0.875000 -1.000000 0.656250 
-0.843750 -1.000000 0.656250 
-0.875000 -1.000000 0.625000 
-0.843750 -1.000000 0.625000 
-1.000000 0.687500 0.812500 
-1.000000 0.687500 0.781250 
-1.000000 0.656250 0.781250 
-1.000000 0.656250 0.812500 
-1.000000 0.625000 0.781250 
-1.000000 0.625000 0.812500 
-1.000000 0.656250 0.843750 
-1.000000 0.687500 0.843750 
-1.000000 0.625000 0.843750 
-1.000000 0.718750 0.843750 
-1.000000 0.718750 0.812500 
-1.000000 0.750000 0.843750 
-1.000000 0.750000 0.812500 
-1.000000 0.718750 0.781250 
-1.000000 0.750000 0.781250 
-1.000000 0.562500 0.812500 
-1.000000 0.562500 0.781250 
-1.000000 0.531250 0.781250 
-1.000000 0.531250 0.812500 
-1.000000 0.500000 0.781250 
-1.000000 0.500000 0.812500 
-1.000000 0.562500 0.750000 
-1.000000 0.531250 0.750000 
-1.000000 0.531250 0.843750 
-1.000000 0.562500 0.843750 
-1.000000 0.531250 0.875000 
-1.000000 0.562500 0.875000 
-1.000000 0.500000 0.843750 
-1.000000 0.593750 0.843750 
-1.000000 0.593750 0.812500 
-1.000000 0.593750 0.875000 
-1.000000 0.593750 0.781250 
-1.000000 0.593750 0.750000 
-1.000000 0.562500 0.937500 
-1.000000 0.562500 0.906250 
-1.000000 0.531250 0.906250 
-1.000000 0.531250 0.937500 
-1.000000 0.531250 0.968750 
-1.000000 0.562500 0.968750 
-1.000000 0.531250 1.000000 
-1.000000 0.562500 1.000000 
-1.000000 0.593750 0.968750 
-1.000000 0.593750 0.937500 
-1.000000 0.593750 1.000000 
-1.000000 0.593750 0.906250 
-1.000000 0.687500 0.562500 
-1.000000 0.687500 0.531250 
-1.000000 0.656250 0.531250 
-1.000000 0.656250 0.562500 
-1.000000 0.625000 0.531250 
-1.000000 0.625000 0.562500 
-1.000000 0.656250 0.593750 
-1.000000 0.687500 0.593750 
-1.000000 0.687500 0.593750 
-1.000000 0.656250 0.593750 
-1.000000 0.656250 0.562500 
-1.000000 0.625000 0.562500 
-1.000000 0.625000 0.593750 
-1.000000 0.656250 0.593750 
-1.000000 0.656250 0.593750 
-1.000000 0.625000 0.593750 
-1.000000 0.625000 0.625000 
-1.000000 0.656250 0.625000 
-1.000000 0.718750 0.593750 
-1.000000 0.718750 0.562500 
-1.000000 0.750000 0.593750 
-1.000000 0.750000 0.562500 
-1.000000 0.687500 0.625000 
-1.000000 0.718750 0.531250 
-1.000000 0.750000 0.531250 
-1.000000 0.562500 0.562500 
-1.000000 0.562500 0.531250 
-1.000000 0.531250 0.531250 
-1.000000 0.531250 0.562500 
-1.000000 0.500000 0.531250 
-1.000000 0.500000 0.562500 
-1.000000 0.562500 0.531250 
-1.000000 0.562500 0.500000 
-1.000000 0.531250 0.500000 
-1.000000 0.531250 0.531250 
-1.000000 0.531250 0.500000 
-1.000000 0.531250 0.593750 
-1.000000 0.562500 0.593750 
-1.000000 0.531250 0.625000 
-1.000000 0.562500 0.625000 
-1.000000 0.500000 0.593750 
-1.000000 0.562500 0.562500 
-1.000000 0.562500 0.593750 
-1.000000 0.593750 0.593750 
-1.000000 0.593750 0.562500 
-1.000000 0.593750 0.562500 
-1.000000 0.593750 0.593750 
-1.000000 0.625000 0.593750 
-1.000000 0.625000 0.562500 
-1.000000 0.593750 0.625000 
-1.000000 0.593750 0.593750 
-1.000000 0.593750 0.625000 
-1.000000 0.625000 0.625000 
-1.000000 0.562500 0.562500 
-1.000000 0.593750 0.562500 
-1.000000 0.593750 0.531250 
-1.000000 0.562500 0.531250 
-1.000000 0.593750 0.531250 
-1.000000 0.593750 0.500000 
-1.000000 0.625000 0.531250 
-1.000000 0.593750 0.531250 
-1.000000 0.593750 0.531250 
-1.000000 0.593750 0.500000 
-1.000000 0.562500 0.687500 
-1.000000 0.562500 0.656250 
-1.000000 0.531250 0.656250 
-1.000000 0.531250 0.687500 
-1.000000 0.531250 0.718750 
-1.000000 0.562500 0.718750 
-1.000000 0.593750 0.718750 
-1.000000 0.593750 0.687500 
-1.000000 0.593750 0.656250 
-1.000000 0.937500 0.562500 
-1.000000 0.937500 0.531250 
-1.000000 0.906250 0.531250 
-1.000000 0.906250 0.562500 
-1.000000 0.875000 0.531250 
-1.000000 0.875000 0.562500 
-1.000000 0.906250 0.593750 
-1.000000 0.937500 0.593750 
-1.000000 0.875000 0.593750 
-1.000000 0.968750 0.593750 
-1.000000 0.968750 0.562500 
-1.000000 1.000000 0.593750 
-1.000000 1.000000 0.562500 
-1.000000 0.968750 0.531250 
-1.000000 1.000000 0.531250 
-1.000000 0.812500 0.562500 
-1.000000 0.812500 0.531250 
-1.000000 0.781250 0.531250 
-1.000000 0.781250 0.562500 
-1.000000 0.812500 0.500000 
-1.000000 0.781250 0.500000 
-1.000000 0.781250 0.593750 
-1.000000 0.812500 0.593750 
-1.000000 0.781250 0.625000 
-1.000000 0.812500 0.625000 
-1.000000 0.843750 0.593750 
-1.000000 0.843750 0.562500 
-1.000000 0.843750 0.625000 
-1.000000 0.843750 0.531250 
-1.000000 0.843750 0.500000 
-1.000000 0.812500 0.687500 
-1.000000 0.812500 0.656250 
-1.000000 0.781250 0.656250 
-1.000000 0.781250 0.687500 
-1.000000 0.750000 0.687500 
-1.000000 0.781250 0.718750 
-1.000000 0.812500 0.718750 
-1.000000 0.812500 0.718750 
-1.000000 0.781250 0.718750 
-1.000000 0.781250 0.750000 
-1.000000 0.812500 0.750000 
-1.000000 0.781250 0.687500 
-1.000000 0.750000 0.687500 
-1.000000 0.750000 0.718750 
-1.000000 0.781250 0.718750 
-1.000000 0.781250 0.718750 
-1.000000 0.750000 0.718750 
-1.000000 0.750000 0.750000 
-1.000000 0.781250 0.750000 
-1.000000 0.843750 0.718750 
-1.000000 0.843750 0.687500 
-1.000000 0.812500 0.750000 
-1.000000 0.843750 0.750000 
-1.000000 0.843750 0.656250 
-0.687500 1.000000 -0.812500 
-0.687500 1.000000 -0.781250 
-0.656250 1.000000 -0.781250 
-0.656250 1.000000 -0.812500 
-0.625000 1.000000 -0.781250 
-0.625000 1.000000 -0.812500 
-0.656250 1.000000 -0.843750 
-0.687500 1.000000 -0.843750 
-0.625000 1.000000 -0.843750 
-0.718750 1.000000 -0.843750 
-0.718750 1.000000 -0.812500 
-0.750000 1.000000 -0.843750 
-0.750000 1.000000 -0.812500 
-0.718750 1.000000 -0.781250 
-0.750000 1.000000 -0.781250 
-0.562500 1.000000 -0.812500 
-0.562500 1.000000 -0.781250 
-0.531250 1.000000 -0.781250 
-0.531250 1.000000 -0.812500 
-0.500000 1.000000 -0.781250 
-0.500000 1.000000 -0.812500 
-0.562500 1.000000 -0.750000 
-0.531250 1.000000 -0.750000 
-0.531250 1.000000 -0.843750 
-0.562500 1.000000 -0.843750 
-0.531250 1.000000 -0.875000 
-0.562500 1.000000 -0.875000 
-0.500000 1.000000 -0.843750 
-0.593750 1.000000 -0.843750 
-0.593750 1.000000 -0.812500 
-0.593750 1.000000 -0.875000 
-0.593750 1.000000 -0.781250 
-0.593750 1.000000 -0.750000 
-0.562500 1.000000 -0.937500 
-0.562500 1.000000 -0.906250 
-0.531250 1.000000 -0.906250 
-0.531250 1.000000 -0.937500 
-0.531250 1.000000 -0.968750 
-0.562500 1.000000 -0.968750 
-0.531250 1.000000 -1.000000 
-0.562500 1.000000 -1.000000 
-0.593750 1.000000 -0.968750 
-0.593750 1.000000 -0.937500 
-0.593750 1.000000 -1.000000 
-0.593750 1.000000 -0.906250 
-0.687500 1.000000 -0.562500 
-0.687500 1.000000 -0.531250 
-0.656250 1.000000 -0.531250 
-0.656250 1.000000 -0.562500 
-0.625000 1.000000 -0.531250 
-0.625000 1.000000 -0.562500 
-0.656250 1.000000 -0.593750 
-0.687500 1.000000 -0.593750 
-0.625000 1.000000 -0.593750 
-0.718750 1.000000 -0.593750 
-0.718750 1.000000 -0.562500 
-0.750000 1.000000 -0.593750 
-0.750000 1.000000 -0.562500 
-0.718750 1.000000 -0.531250 
-0.750000 1.000000 -0.531250 
-0.562500 1.000000 -0.562500 
-0.562500 1.000000 -0.531250 
-0.531250 1.000000 -0.531250 
-0.531250 1.000000 -0.562500 
-0.500000 1.000000 -0.531250 
-0.500000 1.000000 -0.562500 
-0.562500 1.000000 -0.500000 
-0.531250 1.000000 -0.500000 
-0.531250 1.000000 -0.531250 
-0.531250 1.000000 -0.500000 
-0.500000 1.000000 -0.500000 
-0.500000 1.000000 -0.531250 
-0.531250 1.000000 -0.593750 
-0.562500 1.000000 -0.593750 
-0.531250 1.000000 -0.625000 
-0.562500 1.000000 -0.625000 
-0.500000 1.000000 -0.593750 
-0.593750 1.000000 -0.593750 
-0.593750 1.000000 -0.562500 
-0.593750 1.000000 -0.625000 
-0.593750 1.000000 -0.531250 
-0.593750 1.000000 -0.500000 
-0.562500 1.000000 -0.687500 
-0.562500 1.000000 -0.656250 
-0.531250 1.000000 -0.656250 
-0.531250 1.000000 -0.687500 
-0.531250 1.000000 -0.718750 
-0.562500 1.000000 -0.718750 
-0.593750 1.000000 -0.718750 
-0.593750 1.000000 -0.687500 
-0.593750 1.000000 -0.656250 
-0.937500 1.000000 -0.562500 
-0.937500 1.000000 -0.531250 
-0.906250 1.000000 -0.531250 
-0.906250 1.000000 -0.562500 
-0.875000 1.000000 -0.531250 
-0.875000 1.000000 -0.562500 
-0.906250 1.000000 -0.593750 
-0.937500 1.000000 -0.593750 
-0.875000 1.000000 -0.593750 
-0.968750 1.000000 -0.593750 
-0.968750 1.000000 -0.562500 
-1.000000 1.000000 -0.593750 
-1.000000 1.000000 -0.562500 
-0.968750 1.000000 -0.531250 
-1.000000 1.000000 -0.531250 
-0.812500 1.000000 -0.562500 
