0.000699 0.123042 0.013680 
0.001123 0.139042 0.015297 
0.001027 0.123042 0.013796 
0.000199 0.123292 0.013791 
0.000699 0.117792 0.015533 
0.000449 0.123292 0.013653 
0.000699 0.123292 0.013688 
0.000949 0.123292 0.013760 
0.000699 0.141292 0.015369 
0.001199 0.127292 0.015253 
0.000449 0.123542 0.013658 
0.000223 0.123542 0.013796 
0.000699 0.123542 0.013690 
0.000949 0.123542 0.013764 
0.000949 0.117792 0.015380 
0.000449 0.123792 0.013653 
0.000220 0.123792 0.013796 
0.000699 0.123792 0.013692 
0.001199 0.117792 0.015414 
0.000980 0.123792 0.013796 
0.000199 0.124042 0.013792 
0.000199 0.118042 0.015305 
0.000449 0.118042 0.015392 
0.000449 0.124042 0.013666 
0.000699 0.124042 0.013694 
0.000949 0.124042 0.013768 
0.000699 0.118042 0.015530 
0.000199 0.124292 0.013787 
0.000949 0.118042 0.015378 
0.000449 0.124292 0.013679 
0.000699 0.124292 0.013698 
0.001199 0.118042 0.015370 
0.000985 0.124292 0.013796 
0.000199 0.124542 0.013772 
0.000449 0.124542 0.013668 
0.000699 0.124542 0.013700 
0.000988 0.124542 0.013796 
0.000699 0.137792 0.015425 
0.000138 0.124792 0.013796 
0.000449 0.124792 0.013649 
0.000699 0.124792 0.013704 
0.000199 0.118292 0.015315 
0.000167 0.127542 0.015297 
0.000199 0.125042 0.013749 
0.000449 0.138042 0.015418 
0.000449 0.125042 0.013632 
0.000699 0.125042 0.013713 
0.000908 0.125042 0.013796 
0.000949 0.124864 0.013796 
0.001180 0.127542 0.015297 
0.000135 0.125292 0.013796 
0.000449 0.125292 0.013644 
0.000699 0.125292 0.013729 
0.000699 0.138042 0.015473 
-0.000051 0.136117 0.015046 
0.000133 0.125542 0.013796 
0.000449 0.125542 0.013656 
0.000699 0.125542 0.013722 
0.000192 0.128042 0.015297 
0.000135 0.125792 0.013796 
0.000449 0.125792 0.013671 
0.000699 0.125792 0.013709 
0.001220 0.128042 0.015297 
0.000199 0.126042 0.013757 
0.000187 0.128292 0.015297 
0.000449 0.126042 0.013658 
0.000699 0.126042 0.013689 
0.000949 0.125878 0.013796 
0.000949 0.126042 0.013773 
0.000449 0.118292 0.015387 
0.000699 0.118292 0.015500 
0.000176 0.126292 0.013796 
0.000449 0.126292 0.013643 
0.000699 0.126292 0.013676 
0.001236 0.128292 0.015297 
0.000989 0.126292 0.013796 
0.000949 0.118292 0.015360 
0.000185 0.126542 0.013796 
0.000449 0.126542 0.013611 
0.000699 0.126542 0.013679 
0.000949 0.126542 0.013771 
0.000199 0.118542 0.015315 
0.000199 0.126713 0.013796 
0.000449 0.126792 0.013617 
0.000449 0.138292 0.015458 
0.000699 0.126792 0.013698 
0.000942 0.126792 0.013796 
0.000449 0.118542 0.015386 
0.000699 0.118542 0.015474 
0.000949 0.118542 0.015342 
0.000199 0.126925 0.013796 
0.000449 0.127042 0.013622 
0.000699 0.127042 0.013706 
0.000199 0.118792 0.015323 
0.000449 0.142114 0.015297 
0.000449 0.127292 0.013645 
0.000218 0.127292 0.013796 
0.000699 0.127292 0.013710 
0.000449 0.118792 0.015385 
0.000449 0.127542 0.013656 
0.000236 0.127542 0.013796 
0.000699 0.127542 0.013696 
0.000699 0.118792 0.015466 
0.000949 0.127542 0.013775 
0.000949 0.118792 0.015339 
0.000449 0.127792 0.013656 
0.000246 0.127792 0.013796 
0.000699 0.127792 0.013700 
0.000199 0.119042 0.015311 
0.000962 0.127792 0.013796 
0.000449 0.128042 0.013655 
0.000699 0.138292 0.015502 
0.000699 0.128042 0.013707 
0.000449 0.119042 0.015375 
0.001372 0.136292 0.015046 
0.000449 0.128292 0.013678 
0.001209 0.128792 0.015297 
0.000699 0.128292 0.013726 
0.000881 0.128292 0.013796 
0.000449 0.128542 0.013677 
0.000256 0.128542 0.013796 
0.000699 0.128542 0.013740 
-0.000074 0.136542 0.015046 
0.000449 0.128792 0.013689 
0.000264 0.128792 0.013796 
0.001323 0.136542 0.015046 
0.000795 0.128792 0.013796 
0.000449 0.129042 0.013685 
0.000240 0.129042 0.013796 
-0.000083 0.136792 0.015046 
0.000802 0.129042 0.013796 
0.000449 0.129292 0.013682 
0.000225 0.129292 0.013796 
0.000699 0.129292 0.013767 
0.000449 0.129542 0.013690 
0.000699 0.119042 0.015473 
0.000949 0.119042 0.015341 
0.000199 0.138542 0.015320 
0.000449 0.129792 0.013710 
0.000203 0.129792 0.013796 
0.000449 0.138542 0.015445 
0.000699 0.129621 0.013796 
0.000449 0.130042 0.013735 
0.001199 0.119042 0.015308 
0.000699 0.138542 0.015528 
0.000185 0.122542 0.015297 
0.000190 0.139292 0.015297 
0.000576 0.130292 0.013796 
0.000211 0.129292 0.015297 
0.000949 0.135792 0.015382 
0.000199 0.142542 0.015322 
-0.000051 0.122792 0.015055 
0.000449 0.119292 0.015376 
0.001223 0.129292 0.015297 
0.000568 0.133042 0.013796 
0.000761 0.133042 0.013796 
0.000449 0.133292 0.013766 
0.000699 0.119292 0.015476 
0.000949 0.142292 0.015162 
0.000699 0.133292 0.013769 
0.001159 0.139292 0.015297 
0.000449 0.133292 0.015425 
0.000367 0.133542 0.013796 
0.000810 0.133542 0.013796 
0.000449 0.133792 0.013722 
0.000699 0.133292 0.015471 
-0.000051 0.137792 0.015027 
0.000800 0.133792 0.013796 
0.000199 0.133542 0.015363 
0.000337 0.134042 0.013796 
0.000699 0.134042 0.013773 
0.000256 0.129542 0.015297 
0.000449 0.134292 0.013746 
0.000449 0.133542 0.015445 
0.000688 0.134292 0.013796 
0.000949 0.119292 0.015349 
-0.000051 0.138042 0.015028 
0.000310 0.134542 0.013796 
0.000699 0.133542 0.015527 
0.001213 0.138042 0.015046 
-0.000058 0.138292 0.015046 
0.000556 0.134792 0.013796 
0.000722 0.142292 0.015297 
0.000377 0.135042 0.013796 
0.000199 0.133792 0.015352 
0.000449 0.133792 0.015442 
0.000290 0.129792 0.015297 
0.000449 0.142542 0.015324 
0.000449 0.135377 0.013796 
0.000449 0.119542 0.015390 
0.000699 0.119542 0.015485 
-0.000051 0.142541 0.013796 
-0.000050 0.142542 0.013796 
0.000949 0.119542 0.015349 
0.001248 0.129792 0.015297 
0.000199 0.119792 0.015342 
0.000705 0.142542 0.013796 
0.000199 0.130042 0.015232 
-0.000301 0.142744 0.013796 
-0.000051 0.142792 0.013766 
0.000951 0.141542 0.015297 
-0.000051 0.142542 0.015110 
0.000356 0.142792 0.013796 
0.000199 0.130292 0.015237 
0.000699 0.142792 0.013701 
0.000449 0.136042 0.015311 
-0.000301 0.142913 0.013796 
-0.000301 0.143292 0.016064 
0.000342 0.143042 0.013796 
0.000327 0.130292 0.015297 
0.000668 0.133792 0.015546 
0.000449 0.119792 0.015393 
0.000699 0.119792 0.015489 
0.000949 0.119792 0.015341 
0.000699 0.136042 0.015372 
0.001199 0.138542 0.015022 
0.001199 0.130292 0.015278 
-0.000051 0.138792 0.014931 
0.000449 0.120042 0.015389 
0.000699 0.120042 0.015490 
-0.000051 0.117292 0.014002 
0.000949 0.136042 0.015388 
0.000199 0.117292 0.013850 
0.001199 0.117292 0.013892 
0.001324 0.117292 0.014047 
0.001199 0.138792 0.015016 
-0.000150 0.117542 0.014047 
0.001199 0.117542 0.013907 
0.001316 0.117542 0.014047 
-0.000051 0.117792 0.013976 
0.000199 0.139542 0.015294 
0.001199 0.117792 0.013907 
0.001311 0.117792 0.014047 
-0.000051 0.118042 0.013967 
0.000152 0.123042 0.015297 
0.001199 0.118042 0.013899 
0.001305 0.118042 0.014047 
0.000042 0.139042 0.015046 
-0.000107 0.118292 0.014047 
0.001199 0.118292 0.013898 
0.001318 0.118292 0.014047 
-0.000301 0.143292 0.015811 
-0.000099 0.118542 0.014047 
0.000699 0.140292 0.015509 
0.001307 0.118542 0.014047 
0.000949 0.120042 0.015357 
-0.000073 0.118792 0.014047 
0.001199 0.118792 0.013935 
0.001306 0.118792 0.014047 
-0.000064 0.119042 0.014047 
0.000449 0.120292 0.015373 
0.001199 0.119042 0.013948 
0.001305 0.119042 0.014047 
-0.000051 0.119292 0.014022 
0.000699 0.120292 0.015472 
0.000949 0.119292 0.013803 
0.001199 0.119292 0.013961 
-0.000051 0.139292 0.014888 
-0.000051 0.119542 0.014023 
0.000949 0.120292 0.015372 
0.000199 0.130542 0.015256 
0.000071 0.139292 0.015046 
0.001293 0.119542 0.014047 
0.000199 0.120542 0.015334 
-0.000055 0.119792 0.014047 
0.001199 0.119792 0.013964 
0.001225 0.139292 0.015046 
0.000449 0.120542 0.015363 
0.000699 0.120542 0.015473 
-0.000051 0.139542 0.014887 
0.001301 0.120042 0.014047 
-0.000018 0.120292 0.014047 
0.001199 0.120292 0.013940 
0.000076 0.139542 0.015046 
-0.000015 0.120542 0.014047 
0.001199 0.120542 0.013935 
0.001309 0.120542 0.014047 
-0.000041 0.120792 0.014047 
0.001199 0.120792 0.013937 
0.001314 0.120792 0.014047 
0.000949 0.120542 0.015380 
-0.000059 0.121042 0.014047 
0.001258 0.139542 0.015046 
0.001199 0.121042 0.013943 
0.001308 0.121042 0.014047 
0.000199 0.120792 0.015332 
-0.000065 0.121292 0.014047 
0.000449 0.120792 0.015371 
0.000199 0.141792 0.015248 
0.001310 0.121292 0.014047 
0.000699 0.120792 0.015476 
-0.000059 0.121542 0.014047 
0.000949 0.120792 0.015387 
0.001199 0.121542 0.013967 
0.000080 0.139792 0.015046 
-0.000051 0.121792 0.014035 
0.001199 0.120792 0.015322 
0.001323 0.139792 0.015046 
0.001296 0.121792 0.014047 
0.000199 0.121042 0.015346 
-0.000076 0.122042 0.014047 
0.001199 0.122042 0.013956 
0.001318 0.122042 0.014047 
0.001199 0.130542 0.015280 
-0.000087 0.122292 0.014047 
0.001199 0.122292 0.013924 
0.001340 0.122292 0.014047 
-0.000051 0.122542 0.013970 
0.000449 0.138792 0.015427 
0.001199 0.122542 0.013906 
0.001361 0.122542 0.014047 
-0.000051 0.122792 0.013937 
-0.000051 0.140042 0.014900 
0.001199 0.122792 0.013897 
0.001360 0.122792 0.014047 
-0.000051 0.123042 0.013920 
-0.000124 0.123042 0.014047 
0.001199 0.123042 0.013903 
0.001353 0.123042 0.014047 
-0.000051 0.123292 0.013937 
-0.000121 0.123292 0.014047 
0.001199 0.123292 0.013931 
0.001327 0.123292 0.014047 
-0.000051 0.123542 0.013944 
0.000088 0.140042 0.015046 
0.000449 0.121042 0.015389 
0.001199 0.123542 0.013944 
0.001312 0.123542 0.014047 
0.001398 0.140042 0.015046 
-0.000129 0.123792 0.014047 
0.000699 0.121042 0.015480 
0.001199 0.123792 0.013950 
0.001302 0.123792 0.014047 
-0.000051 0.124042 0.013961 
-0.000051 0.140292 0.014890 
0.001199 0.124042 0.013947 
0.001305 0.124042 0.014047 
-0.000051 0.124292 0.013968 
0.000093 0.140292 0.015046 
0.001303 0.124292 0.014047 
-0.000051 0.124542 0.013981 
0.001199 0.124542 0.013951 
0.000949 0.121042 0.015379 
-0.000096 0.124792 0.014047 
0.000449 0.134042 0.015437 
0.001293 0.124792 0.014047 
-0.000051 0.125042 0.014011 
0.001139 0.123042 0.015297 
0.000449 0.121292 0.015406 
0.001199 0.125042 0.013957 
0.000090 0.140542 0.015046 
0.000699 0.121292 0.015482 
-0.000071 0.125292 0.014047 
0.000949 0.125292 0.013829 
0.001449 0.140542 0.015035 
0.001292 0.125292 0.014047 
-0.000051 0.125542 0.013984 
0.000268 0.130792 0.015297 
0.000949 0.125542 0.013822 
0.001294 0.125542 0.014047 
-0.000051 0.125792 0.013997 
0.001199 0.130792 0.015276 
0.000949 0.121292 0.015375 
0.001199 0.125792 0.013954 
-0.000051 0.140792 0.014889 
0.000199 0.121542 0.015378 
-0.000074 0.126042 0.014047 
0.001199 0.126042 0.013937 
0.000077 0.140792 0.015046 
-0.000051 0.123292 0.015082 
0.000449 0.121542 0.015409 
0.001199 0.126292 0.013935 
0.001313 0.126292 0.014047 
0.000699 0.121542 0.015484 
-0.000063 0.126542 0.014047 
0.001199 0.126542 0.013936 
0.001316 0.126542 0.014047 
0.000690 0.138792 0.015546 
-0.000046 0.126792 0.014047 
0.000949 0.121542 0.015382 
0.001443 0.140792 0.015046 
0.001199 0.126792 0.013941 
0.001315 0.126792 0.014047 
0.000699 0.142542 0.015284 
0.000949 0.127042 0.013813 
0.001199 0.127042 0.013943 
0.001317 0.127042 0.014047 
0.000449 0.121792 0.015401 
0.000252 0.131042 0.015297 
0.000949 0.127292 0.013803 
0.001199 0.127292 0.013944 
0.001307 0.127292 0.014047 
0.000699 0.121792 0.015480 
-0.000011 0.127542 0.014047 
-0.000051 0.141042 0.014930 
0.001293 0.127542 0.014047 
0.001199 0.131042 0.015287 
0.000017 0.127792 0.014047 
0.001199 0.127792 0.013958 
0.000043 0.141042 0.015046 
0.000199 0.128042 0.013836 
0.000034 0.128042 0.014047 
0.000949 0.128042 0.013807 
0.001199 0.128042 0.013959 
0.001396 0.141042 0.015046 
0.000199 0.128292 0.013834 
0.000041 0.128292 0.014047 
-0.000301 0.143261 0.016046 
0.000712 0.134042 0.015546 
0.001281 0.128292 0.014047 
0.000046 0.128542 0.014047 
0.000949 0.128542 0.013842 
-0.000018 0.141292 0.015046 
0.001259 0.128542 0.014047 
0.000949 0.141292 0.015363 
0.000047 0.128792 0.014047 
0.000949 0.128792 0.013864 
0.001199 0.128792 0.014018 
0.000949 0.121792 0.015412 
0.000199 0.142792 0.015345 
0.000007 0.129042 0.014047 
0.000949 0.129042 0.013869 
0.001199 0.129030 0.014047 
0.000449 0.122042 0.015393 
-0.000022 0.129292 0.014047 
0.000949 0.129292 0.013893 
0.001168 0.129292 0.014047 
0.000199 0.129542 0.013805 
0.000949 0.129542 0.013930 
0.001341 0.141292 0.015046 
0.000699 0.122042 0.015483 
-0.000072 0.129792 0.014047 
-0.000054 0.141542 0.015046 
0.000949 0.122042 0.015429 
0.000699 0.129792 0.013825 
0.000949 0.129792 0.013975 
0.001071 0.129792 0.014047 
0.000449 0.139042 0.015422 
-0.000098 0.130042 0.014047 
0.000199 0.130042 0.013803 
0.000699 0.130042 0.013833 
0.000449 0.141292 0.015303 
0.001034 0.130042 0.014047 
-0.000051 0.130292 0.013951 
0.001291 0.141542 0.015046 
0.000199 0.130292 0.013830 
0.000277 0.139792 0.015297 
0.000936 0.131292 0.015297 
0.001019 0.130292 0.014047 
0.000449 0.134292 0.015416 
-0.000107 0.130542 0.014047 
0.000199 0.130542 0.013847 
0.000449 0.130542 0.013816 
0.000699 0.130542 0.013812 
0.001199 0.131292 0.015256 
0.001015 0.130542 0.014047 
-0.000051 0.130792 0.013991 
-0.000051 0.131542 0.015084 
0.000199 0.130792 0.013852 
0.000449 0.130792 0.013853 
0.000699 0.130792 0.013823 
0.000949 0.130792 0.014011 
0.000199 0.131348 0.015297 
-0.000074 0.131042 0.014047 
0.000199 0.131042 0.013880 
0.000449 0.131042 0.013878 
0.000699 0.131042 0.013852 
0.000949 0.131042 0.014002 
-0.000044 0.141792 0.015046 
0.000828 0.131542 0.015297 
0.000199 0.131292 0.013919 
-0.000032 0.131292 0.014047 
0.000449 0.131292 0.013907 
0.000699 0.131292 0.013877 
0.000949 0.131292 0.013981 
0.001115 0.131292 0.014047 
0.000199 0.131542 0.013949 
0.000063 0.131542 0.014047 
0.000449 0.131542 0.013926 
0.000699 0.131542 0.013877 
0.000949 0.131542 0.013952 
0.001199 0.131542 0.014043 
0.000449 0.122292 0.015397 
0.000020 0.134042 0.015046 
0.000096 0.131792 0.014047 
0.000449 0.131792 0.013925 
0.000699 0.131792 0.013863 
0.000949 0.131792 0.013920 
0.000699 0.122292 0.015499 
0.001235 0.131792 0.014047 
0.000199 0.132042 0.014015 
0.001199 0.131542 0.015219 
0.000449 0.132042 0.013923 
0.000699 0.132042 0.013857 
0.000949 0.132042 0.013893 
0.001199 0.132042 0.014007 
-0.000059 0.142042 0.015046 
0.000176 0.131792 0.015297 
0.000449 0.132292 0.013908 
0.000699 0.132292 0.013822 
0.000949 0.132292 0.013879 
0.001199 0.132292 0.014000 
0.000949 0.131792 0.015197 
0.000949 0.122292 0.015435 
0.000195 0.132542 0.014047 
0.000449 0.132542 0.013886 
0.000699 0.132542 0.013806 
0.000949 0.132542 0.013875 
0.000779 0.131792 0.015297 
0.001268 0.132542 0.014047 
0.001199 0.122292 0.015379 
0.000198 0.132792 0.014047 
0.000449 0.132792 0.013862 
0.000949 0.132792 0.013870 
0.001199 0.132792 0.014019 
-0.000051 0.142961 0.015546 
0.000449 0.122542 0.015408 
0.000181 0.133042 0.014047 
0.000199 0.140042 0.015222 
0.000949 0.133042 0.013872 
0.000699 0.122542 0.015502 
0.000949 0.122542 0.015426 
0.000199 0.133292 0.013989 
0.001199 0.131792 0.015185 
0.000949 0.133292 0.013877 
0.000949 0.142542 0.015134 
0.001199 0.133089 0.014047 
0.000699 0.141042 0.015401 
0.000127 0.133542 0.014047 
0.000949 0.133542 0.013871 
0.001162 0.133542 0.014047 
0.000199 0.133792 0.013905 
0.000107 0.133792 0.014047 
0.000949 0.133792 0.013875 
0.001160 0.133792 0.014047 
0.000199 0.134042 0.013881 
0.000088 0.134042 0.014047 
0.000949 0.134042 0.013891 
0.001199 0.142027 0.015046 
0.000199 0.134292 0.013859 
0.000067 0.134292 0.014047 
0.001199 0.122542 0.015326 
0.000949 0.134292 0.013909 
0.000949 0.134292 0.015406 
-0.000078 0.142292 0.015046 
0.000046 0.134542 0.014047 
0.000699 0.134542 0.013840 
0.000949 0.134542 0.013938 
0.001085 0.134542 0.014047 
0.000199 0.134792 0.013864 
0.000029 0.134792 0.014047 
0.000699 0.134792 0.013869 
0.000949 0.134792 0.013989 
0.001199 0.142292 0.014971 
0.000199 0.135042 0.013855 
0.000178 0.132042 0.015297 
0.000699 0.135042 0.013892 
0.000199 0.122792 0.015325 
0.000449 0.122792 0.015422 
0.000699 0.122792 0.015518 
0.000949 0.122792 0.015421 
-0.000051 0.135236 0.014047 
0.000199 0.135292 0.013858 
0.000699 0.135292 0.013920 
0.000859 0.135292 0.014047 
0.000949 0.132042 0.015186 
-0.000057 0.135542 0.014047 
0.000199 0.135542 0.013882 
0.000449 0.135542 0.013822 
0.000699 0.135542 0.013960 
0.000949 0.136292 0.015356 
0.000449 0.123042 0.015428 
0.000199 0.135792 0.013931 
0.001319 0.140042 0.015297 
0.000449 0.135792 0.013886 
0.001199 0.142542 0.014845 
0.000788 0.135792 0.014047 
0.000199 0.136042 0.013986 
0.000005 0.136042 0.014047 
0.000449 0.136042 0.013949 
0.000152 0.124542 0.015297 
0.000782 0.136042 0.014047 
0.000199 0.136292 0.013996 
0.000019 0.136292 0.014047 
0.000449 0.136292 0.013992 
0.000699 0.136292 0.014023 
0.000785 0.132042 0.015297 
0.000199 0.136542 0.014003 
0.000040 0.136542 0.014047 
0.000449 0.136542 0.014017 
0.000699 0.136542 0.014034 
0.001199 0.132042 0.015169 
0.000199 0.136792 0.014012 
0.001119 0.142542 0.015046 
0.000449 0.136792 0.014024 
0.000699 0.136792 0.014025 
0.000699 0.123015 0.015546 
0.000949 0.136792 0.014039 
0.000199 0.143042 0.015352 
0.000949 0.123042 0.015418 
0.000167 0.137042 0.014047 
0.000449 0.137042 0.014017 
0.000699 0.137042 0.014002 
-0.000054 0.142792 0.015297 
0.001029 0.137042 0.014047 
0.000199 0.137292 0.014030 
0.000199 0.123292 0.015361 
0.000449 0.137292 0.013993 
0.000699 0.137292 0.013976 
0.000949 0.137292 0.014012 
0.000449 0.123292 0.015435 
0.000182 0.137542 0.014047 
0.000449 0.137542 0.013960 
0.000699 0.137542 0.013950 
0.000949 0.137542 0.014010 
-0.000188 0.142792 0.015046 
0.000699 0.123112 0.015546 
0.000449 0.137792 0.013927 
0.000699 0.123292 0.015538 
0.000699 0.137792 0.013932 
0.000199 0.132292 0.015287 
0.001028 0.137792 0.014047 
0.000449 0.138042 0.013890 
0.000949 0.123292 0.015415 
0.000699 0.138042 0.013899 
0.000949 0.139042 0.015452 
0.001024 0.138042 0.014047 
0.000199 0.123542 0.015356 
0.000199 0.140292 0.015196 
0.000949 0.132292 0.015190 
0.000449 0.138292 0.013875 
0.000699 0.138292 0.013866 
-0.000301 0.143042 0.014979 
0.001041 0.138292 0.014047 
0.000199 0.138400 0.014047 
0.000449 0.138542 0.013874 
0.000205 0.138542 0.014047 
0.000699 0.138542 0.013870 
0.000949 0.138542 0.013990 
0.001199 0.141542 0.015199 
0.000449 0.138792 0.013897 
0.000449 0.123542 0.015436 
0.000699 0.138792 0.013893 
0.000949 0.138792 0.014012 
0.001199 0.132292 0.015135 
0.000449 0.139042 0.013923 
0.000214 0.139042 0.014047 
0.000699 0.139042 0.013921 
0.000949 0.139042 0.014033 
0.000699 0.123542 0.015514 
0.000949 0.123542 0.015406 
0.000186 0.139292 0.014047 
0.000410 0.140292 0.015297 
0.000449 0.139292 0.013937 
0.000699 0.139292 0.013945 
0.000199 0.123792 0.015365 
0.000449 0.123792 0.015422 
-0.000051 0.132542 0.015077 
0.000144 0.139542 0.014047 
0.000449 0.139542 0.013933 
0.000699 0.139542 0.013971 
0.000902 0.139542 0.014047 
0.000949 0.139305 0.014047 
0.000199 0.139792 0.013971 
0.000089 0.139792 0.014047 
0.000449 0.139792 0.013940 
0.001449 0.140292 0.015084 
0.000703 0.134292 0.015546 
0.000199 0.140042 0.013961 
0.000070 0.140042 0.014047 
0.000449 0.140042 0.013939 
0.000949 0.143013 0.015046 
0.000699 0.123792 0.015477 
0.000199 0.140292 0.013959 
0.000449 0.140292 0.013931 
0.000949 0.123792 0.015393 
0.000199 0.124042 0.015374 
0.000199 0.140542 0.013958 
0.001341 0.140292 0.015297 
0.000449 0.140542 0.013920 
0.000684 0.140542 0.014047 
0.000199 0.134542 0.015301 
0.000199 0.140792 0.013954 
0.000039 0.140792 0.014047 
0.000449 0.140792 0.013912 
0.000686 0.140792 0.014047 
0.000199 0.141042 0.013970 
0.000449 0.141042 0.013931 
0.000676 0.141042 0.014047 
0.000199 0.141292 0.013953 
0.000449 0.124042 0.015422 
0.000449 0.141292 0.013970 
0.000699 0.124042 0.015467 
-0.000051 0.141542 0.014033 
0.000949 0.124042 0.015374 
-0.000051 0.141338 0.014047 
0.000199 0.141542 0.013928 
0.000449 0.141542 0.013972 
0.000699 0.141542 0.014030 
0.000199 0.124292 0.015370 
0.000449 0.124292 0.015420 
-0.000052 0.141792 0.014047 
0.000199 0.141792 0.013886 
0.000449 0.141792 0.013941 
0.000699 0.141792 0.013996 
0.000699 0.124292 0.015488 
0.000949 0.124292 0.015368 
0.000199 0.142042 0.013863 
0.000949 0.143292 0.014905 
0.000449 0.142042 0.013897 
0.000699 0.142042 0.013943 
0.001238 0.134042 0.015046 
0.000949 0.142042 0.014006 
0.000449 0.139292 0.015414 
0.000199 0.142292 0.013871 
0.000002 0.142292 0.014047 
0.000449 0.142292 0.013882 
0.000699 0.142292 0.013883 
0.000949 0.142292 0.013959 
0.000449 0.134542 0.015407 
0.000449 0.124542 0.015416 
0.000199 0.142542 0.013912 
0.000001 0.142542 0.014047 
0.000449 0.142542 0.013849 
0.000949 0.142542 0.013912 
0.001111 0.142542 0.014047 
-0.000051 0.132792 0.015069 
-0.000101 0.142792 0.014047 
0.000174 0.132792 0.015297 
0.000199 0.142792 0.013888 
0.000949 0.142792 0.013887 
0.001130 0.142792 0.014047 
0.000699 0.124542 0.015502 
0.000949 0.124542 0.015374 
0.000199 0.143042 0.013895 
0.000949 0.143042 0.013891 
0.000199 0.132631 0.015297 
-0.000051 0.143096 0.013796 
0.000949 0.132792 0.015166 
0.000199 0.124792 0.015336 
-0.000182 0.143292 0.013796 
0.000002 0.143292 0.013796 
0.000199 0.143292 0.013941 
0.000361 0.143292 0.013796 
0.000949 0.143292 0.013820 
0.000795 0.132792 0.015297 
0.001199 0.143292 0.014038 
0.000449 0.124792 0.015420 
-0.000301 0.143355 0.014047 
0.000199 0.143480 0.013796 
0.000699 0.124792 0.015507 
0.000949 0.124792 0.015381 
0.000697 0.134542 0.015546 
0.001199 0.124792 0.015304 
-0.000299 0.117292 0.014297 
0.001449 0.117292 0.014160 
0.001585 0.117292 0.014297 
-0.000290 0.117542 0.014297 
0.001449 0.117542 0.014186 
0.001569 0.117542 0.014297 
-0.000291 0.117792 0.014297 
0.001449 0.117792 0.014208 
-0.000279 0.118042 0.014297 
0.001449 0.118042 0.014258 
-0.000051 0.133042 0.015068 
-0.000240 0.118292 0.014297 
0.000449 0.125042 0.015414 
0.001461 0.118292 0.014297 
-0.000218 0.118542 0.014297 
0.000699 0.125042 0.015500 
0.001464 0.118542 0.014297 
-0.000204 0.118792 0.014297 
0.001483 0.118792 0.014297 
-0.000218 0.119042 0.014297 
0.001449 0.119042 0.014241 
0.000949 0.133042 0.015165 
-0.000227 0.119292 0.014297 
0.000949 0.125042 0.015393 
0.001471 0.119292 0.014297 
-0.000230 0.119542 0.014297 
0.001449 0.119542 0.014276 
0.001199 0.125042 0.015332 
-0.000201 0.119792 0.014297 
0.001462 0.119792 0.014297 
-0.000051 0.120042 0.014070 
-0.000178 0.120042 0.014297 
0.000449 0.125292 0.015416 
0.001474 0.120042 0.014297 
0.000806 0.133042 0.015297 
-0.000169 0.120292 0.014297 
0.001449 0.120292 0.014244 
0.000143 0.133292 0.015297 
0.000949 0.133292 0.015189 
-0.000193 0.120542 0.014297 
0.000699 0.143365 0.015046 
0.001506 0.120542 0.014297 
0.000699 0.125292 0.015499 
-0.000211 0.120792 0.014297 
0.000199 0.140542 0.015169 
0.001510 0.120792 0.014297 
-0.000214 0.121042 0.014297 
0.001449 0.121042 0.014234 
0.000699 0.142792 0.015231 
-0.000203 0.121292 0.014297 
0.001449 0.121292 0.014220 
0.000949 0.140292 0.015469 
-0.000192 0.121542 0.014297 
0.001449 0.121542 0.014217 
-0.000190 0.121792 0.014297 
0.000699 0.141542 0.015331 
0.001495 0.121792 0.014297 
-0.000185 0.122042 0.014297 
0.001449 0.122042 0.014240 
0.000893 0.133542 0.015297 
-0.000190 0.122292 0.014297 
0.000949 0.125292 0.015403 
0.001454 0.122292 0.014297 
-0.000192 0.122542 0.014297 
0.001449 0.122542 0.014297 
-0.000190 0.122792 0.014297 
0.001449 0.122792 0.014257 
0.000199 0.125542 0.015410 
-0.000191 0.123042 0.014297 
0.000949 0.142792 0.015085 
0.001497 0.123042 0.014297 
-0.000201 0.123292 0.014297 
0.001449 0.123292 0.014236 
0.000949 0.133751 0.015297 
-0.000211 0.123542 0.014297 
0.001449 0.123542 0.014260 
0.000449 0.125542 0.015417 
-0.000201 0.123792 0.014297 
0.000699 0.125542 0.015500 
0.000949 0.125542 0.015404 
-0.000192 0.124042 0.014297 
0.000699 0.139120 0.015546 
0.001421 0.124042 0.014297 
-0.000185 0.124292 0.014297 
0.001416 0.124292 0.014297 
-0.000201 0.124542 0.014297 
0.001424 0.124542 0.014297 
-0.000229 0.124792 0.014297 
0.001443 0.124792 0.014297 
-0.000240 0.125042 0.014297 
0.000949 0.134542 0.015466 
0.000147 0.134042 0.015297 
0.000199 0.125792 0.015414 
-0.000220 0.125292 0.014297 
0.000193 0.139042 0.015297 
0.001444 0.125292 0.014297 
-0.000196 0.125542 0.014297 
0.001438 0.125542 0.014297 
-0.000197 0.125792 0.014297 
-0.000190 0.126042 0.014297 
0.001449 0.125911 0.014297 
0.000449 0.125792 0.015422 
-0.000189 0.126292 0.014297 
0.000699 0.125792 0.015518 
0.001469 0.126292 0.014297 
-0.000183 0.126542 0.014297 
0.000949 0.125792 0.015406 
0.000449 0.126042 0.015425 
-0.000154 0.126792 0.014297 
0.000699 0.126042 0.015533 
-0.000051 0.127042 0.014091 
-0.000135 0.127042 0.014297 
0.001446 0.127042 0.014297 
-0.000051 0.127292 0.014117 
-0.000125 0.127292 0.014297 
0.001432 0.127292 0.014297 
-0.000102 0.127542 0.014297 
0.001434 0.127542 0.014297 
-0.000051 0.127792 0.014246 
0.001066 0.134042 0.015297 
0.001431 0.127792 0.014297 
-0.000051 0.128042 0.014261 
0.000949 0.126042 0.015410 
0.001437 0.128042 0.014297 
0.000171 0.134292 0.015297 
-0.000019 0.128292 0.014297 
0.001429 0.128292 0.014297 
-0.000010 0.128542 0.014297 
0.001403 0.128542 0.014297 
-0.000009 0.128792 0.014297 
0.001378 0.128792 0.014297 
0.001199 0.140292 0.015426 
0.000199 0.126292 0.015378 
0.001335 0.129042 0.014297 
-0.000051 0.129292 0.014230 
0.001222 0.134292 0.015297 
0.000949 0.139292 0.015450 
0.001279 0.134542 0.015297 
0.001288 0.129292 0.014297 
0.000449 0.139542 0.015408 
-0.000090 0.129542 0.014297 
0.001199 0.129542 0.014171 
-0.000119 0.129792 0.014297 
-0.000118 0.143042 0.015297 
0.001217 0.129792 0.014297 
-0.000154 0.130042 0.014297 
0.001199 0.130042 0.014213 
-0.000179 0.130292 0.014297 
0.001266 0.130292 0.014297 
-0.000202 0.130542 0.014297 
0.001199 0.130542 0.014162 
0.001302 0.130542 0.014297 
-0.000211 0.130792 0.014297 
0.001199 0.130792 0.014171 
0.001319 0.130792 0.014297 
-0.000240 0.131042 0.014297 
0.001199 0.131042 0.014134 
0.001339 0.131042 0.014297 
0.000449 0.126292 0.015432 
-0.000243 0.131292 0.014297 
0.000241 0.134792 0.015297 
0.001368 0.131292 0.014297 
-0.000051 0.131542 0.014124 
-0.000231 0.131542 0.014297 
0.001391 0.131542 0.014297 
-0.000051 0.131792 0.014138 
-0.000201 0.131792 0.014297 
0.001411 0.131792 0.014297 
-0.000051 0.132042 0.014145 
-0.000174 0.132042 0.014297 
0.001409 0.132042 0.014297 
-0.000051 0.132292 0.014150 
-0.000148 0.132292 0.014297 
0.001407 0.132292 0.014297 
0.001397 0.132542 0.014297 
-0.000051 0.132646 0.014297 
-0.000017 0.132792 0.014297 
0.001381 0.132792 0.014297 
0.000004 0.133042 0.014297 
0.001358 0.133042 0.014297 
0.000007 0.133292 0.014297 
0.001199 0.133292 0.014078 
0.001331 0.133292 0.014297 
0.000008 0.133542 0.014297 
0.000699 0.126226 0.015546 
0.001307 0.133542 0.014297 
0.000001 0.133792 0.014297 
0.000449 0.143042 0.015247 
0.001299 0.133792 0.014297 
-0.000001 0.134042 0.014297 
0.001199 0.134042 0.014119 
0.001280 0.134042 0.014297 
-0.000020 0.134292 0.014297 
0.001199 0.134292 0.014150 
0.001274 0.134292 0.014297 
-0.000044 0.134542 0.014297 
0.000459 0.140542 0.015297 
0.001266 0.134542 0.014297 
0.000139 0.143292 0.015546 
-0.000057 0.134792 0.014297 
0.000949 0.126292 0.015407 
0.001255 0.134792 0.014297 
-0.000051 0.135042 0.014120 
-0.000108 0.135042 0.014297 
0.000949 0.135042 0.014059 
0.000199 0.135042 0.015239 
0.001228 0.135042 0.014297 
-0.000156 0.135292 0.014297 
0.001190 0.135292 0.014297 
-0.000196 0.135542 0.014297 
0.000949 0.135542 0.014113 
0.000199 0.126542 0.015356 
-0.000051 0.135792 0.014054 
-0.000214 0.135792 0.014297 
0.000949 0.135792 0.014119 
0.000449 0.126542 0.015433 
0.000320 0.135042 0.015297 
-0.000235 0.136042 0.014297 
0.000949 0.136042 0.014110 
0.001199 0.135830 0.014297 
0.001199 0.136042 0.014254 
0.001264 0.135042 0.015297 
0.000199 0.135292 0.015215 
-0.000245 0.136292 0.014297 
0.000949 0.136292 0.014091 
0.001199 0.136292 0.014211 
-0.000253 0.136542 0.014297 
0.000949 0.136542 0.014065 
0.001199 0.136542 0.014175 
0.001308 0.136542 0.014297 
-0.000051 0.136792 0.014092 
-0.000239 0.136792 0.014297 
0.001199 0.136792 0.014152 
0.001311 0.136792 0.014297 
-0.000051 0.137042 0.014156 
-0.000194 0.137042 0.014297 
0.001199 0.137042 0.014140 
0.001309 0.137042 0.014297 
-0.000051 0.137292 0.014216 
0.001199 0.137292 0.014141 
0.001310 0.137292 0.014297 
-0.000051 0.137542 0.014243 
0.001199 0.137542 0.014145 
0.001310 0.137542 0.014297 
0.000679 0.126542 0.015546 
-0.000071 0.137792 0.014297 
0.000199 0.137792 0.014051 
0.001199 0.137792 0.014138 
0.001318 0.137792 0.014297 
0.000949 0.126542 0.015408 
0.000199 0.138042 0.014054 
0.001199 0.124542 0.015247 
0.001199 0.138042 0.014139 
0.001317 0.138042 0.014297 
0.000004 0.138292 0.014297 
0.001199 0.138292 0.014168 
0.001296 0.138292 0.014297 
0.000019 0.138542 0.014297 
0.001259 0.138542 0.014297 
0.000199 0.138792 0.014055 
0.000026 0.138792 0.014297 
0.000199 0.135542 0.015221 
0.001237 0.138792 0.014297 
0.000013 0.139042 0.014297 
0.000449 0.126792 0.015435 
0.001216 0.139042 0.014297 
-0.000032 0.139292 0.014297 
0.000380 0.135542 0.015297 
0.000699 0.126792 0.015542 
-0.000051 0.139542 0.014273 
0.000949 0.126792 0.015405 
0.001251 0.135542 0.015297 
0.000199 0.135792 0.015227 
-0.000097 0.139792 0.014297 
0.000949 0.139792 0.014116 
0.001103 0.139792 0.014297 
-0.000051 0.140042 0.014165 
0.001155 0.123292 0.015297 
0.000949 0.140042 0.014168 
0.001076 0.140042 0.014297 
-0.000051 0.140292 0.014141 
-0.000146 0.140292 0.014297 
0.000949 0.140292 0.014184 
0.001079 0.140292 0.014297 
-0.000051 0.140542 0.014124 
-0.000170 0.140542 0.014297 
0.000949 0.140542 0.014192 
0.001107 0.140542 0.014297 
-0.000195 0.140792 0.014297 
0.000449 0.127042 0.015425 
0.000949 0.140792 0.014186 
0.001150 0.140792 0.014297 
-0.000051 0.141042 0.014091 
-0.000224 0.141042 0.014297 
0.000699 0.127042 0.015534 
0.000949 0.141042 0.014173 
0.001194 0.141042 0.014297 
0.000949 0.127042 0.015407 
-0.000258 0.141292 0.014297 
0.000699 0.141292 0.014054 
0.000949 0.141292 0.014154 
0.000199 0.127292 0.015360 
0.000449 0.127292 0.015411 
0.001200 0.141292 0.014297 
-0.000235 0.141542 0.014297 
0.000949 0.141542 0.014107 
0.000680 0.127292 0.015546 
0.001213 0.141542 0.014297 
-0.000199 0.141792 0.014297 
0.000949 0.141792 0.014058 
0.001220 0.141792 0.014297 
-0.000051 0.142042 0.014092 
-0.000190 0.142042 0.014297 
0.000404 0.135792 0.015297 
0.001225 0.142042 0.014297 
0.000699 0.140542 0.015470 
-0.000169 0.142292 0.014297 
0.001261 0.135792 0.015297 
0.001241 0.142292 0.014297 
-0.000051 0.142542 0.014163 
-0.000220 0.142542 0.014297 
0.001323 0.140542 0.015297 
0.000949 0.127292 0.015405 
0.000449 0.127542 0.015400 
0.000554 0.141792 0.015297 
0.001256 0.142792 0.014297 
-0.000303 0.143042 0.014297 
-0.000051 0.143042 0.014086 
0.001199 0.143042 0.014100 
0.001260 0.143042 0.014297 
0.000949 0.127542 0.015414 
-0.000255 0.143292 0.014297 
0.001283 0.143292 0.014297 
-0.000301 0.143364 0.014297 
0.000949 0.141792 0.015221 
0.000713 0.127542 0.015546 
0.000199 0.127792 0.015314 
0.000199 0.136042 0.015241 
0.000449 0.127792 0.015397 
-0.000280 0.117292 0.014546 
0.001673 0.117292 0.014546 
-0.000259 0.117542 0.014546 
0.001613 0.117542 0.014546 
-0.000248 0.117792 0.014546 
0.001578 0.117792 0.014546 
-0.000242 0.118042 0.014546 
0.000248 0.117292 0.015297 
-0.000235 0.118292 0.014546 
-0.000230 0.118542 0.014546 
0.001465 0.118542 0.014546 
-0.000226 0.118792 0.014546 
0.000699 0.127792 0.015532 
-0.000240 0.119042 0.014546 
0.001498 0.119042 0.014546 
-0.000229 0.119292 0.014546 
0.001517 0.119292 0.014546 
-0.000228 0.119542 0.014546 
0.001501 0.119542 0.014546 
-0.000210 0.119792 0.014546 
0.000449 0.140792 0.015287 
-0.000191 0.120042 0.014546 
0.001517 0.120042 0.014546 
-0.000188 0.120292 0.014546 
0.001359 0.117292 0.015297 
-0.000202 0.120542 0.014546 
0.001523 0.120542 0.014546 
-0.000217 0.120792 0.014546 
-0.000051 0.117542 0.015070 
-0.000231 0.121042 0.014546 
0.000449 0.134792 0.015394 
-0.000225 0.121292 0.014546 
0.000199 0.117513 0.015297 
-0.000220 0.121542 0.014546 
0.001488 0.121542 0.014546 
-0.000213 0.121792 0.014546 
0.001487 0.121792 0.014546 
-0.000194 0.122042 0.014546 
-0.000189 0.122292 0.014546 
0.001481 0.122292 0.014546 
-0.000197 0.122542 0.014546 
0.000949 0.127792 0.015437 
-0.000201 0.122792 0.014546 
0.001468 0.122792 0.014546 
-0.000211 0.123042 0.014546 
0.001481 0.123042 0.014546 
-0.000217 0.123292 0.014546 
0.001492 0.123292 0.014546 
-0.000231 0.123542 0.014546 
0.001494 0.123542 0.014546 
-0.000225 0.123792 0.014546 
0.001449 0.123792 0.014352 
0.001449 0.123772 0.014546 
0.001199 0.127792 0.015315 
-0.000223 0.124042 0.014546 
0.001428 0.124042 0.014546 
-0.000213 0.124292 0.014546 
-0.000234 0.124542 0.014546 
0.001449 0.124384 0.014546 
0.001355 0.117542 0.015297 
0.000699 0.139542 0.015521 
-0.000242 0.124792 0.014546 
0.000449 0.128042 0.015387 
-0.000051 0.117792 0.015065 
-0.000258 0.125042 0.014546 
0.001486 0.125042 0.014546 
-0.000255 0.125292 0.014546 
0.000699 0.128042 0.015505 
0.001443 0.125292 0.014546 
-0.000223 0.125542 0.014546 
0.001415 0.125542 0.014546 
-0.000212 0.125792 0.014546 
0.001426 0.125792 0.014546 
-0.000211 0.126042 0.014546 
0.000949 0.128042 0.015430 
-0.000211 0.126292 0.014546 
0.001449 0.126051 0.014546 
-0.000201 0.126542 0.014546 
-0.000051 0.136292 0.015057 
-0.000187 0.126792 0.014546 
0.001449 0.126792 0.014359 
0.000199 0.136292 0.015268 
-0.000183 0.127042 0.014546 
0.000699 0.143042 0.015169 
0.001459 0.127042 0.014546 
-0.000179 0.127292 0.014546 
0.000949 0.139542 0.015464 
0.001445 0.127292 0.014546 
-0.000168 0.127542 0.014546 
0.001434 0.127542 0.014546 
-0.000159 0.127792 0.014546 
0.001435 0.127792 0.014546 
-0.000139 0.128042 0.014546 
0.001446 0.128042 0.014546 
0.001338 0.117792 0.015297 
0.000699 0.134792 0.015505 
0.001199 0.136258 0.015297 
0.000449 0.128292 0.015399 
-0.000051 0.128542 0.014459 
0.001199 0.139542 0.015351 
0.001449 0.128312 0.014546 
0.001442 0.128542 0.014546 
0.000449 0.139792 0.015396 
-0.000077 0.128792 0.014546 
0.001432 0.128792 0.014546 
-0.000051 0.129042 0.014375 
-0.000102 0.129042 0.014546 
0.001396 0.129042 0.014546 
-0.000137 0.129292 0.014546 
0.001383 0.129292 0.014546 
-0.000150 0.129542 0.014546 
0.001380 0.129542 0.014546 
-0.000147 0.129792 0.014546 
0.001394 0.129792 0.014546 
-0.000147 0.130042 0.014546 
0.001411 0.130042 0.014546 
-0.000161 0.130292 0.014546 
0.001417 0.130292 0.014546 
-0.000168 0.130542 0.014546 
0.001393 0.130542 0.014546 
-0.000189 0.130792 0.014546 
0.001386 0.130792 0.014546 
-0.000213 0.131042 0.014546 
0.001391 0.131042 0.014546 
-0.000240 0.131292 0.014546 
0.001401 0.131292 0.014546 
-0.000228 0.131542 0.014546 
0.001400 0.131542 0.014546 
-0.000201 0.131792 0.014546 
0.001411 0.131792 0.014546 
-0.000179 0.132042 0.014546 
0.001434 0.132042 0.014546 
-0.000167 0.132292 0.014546 
0.000949 0.134792 0.015461 
0.000199 0.136542 0.015279 
0.001457 0.132292 0.014546 
-0.000153 0.132542 0.014546 
0.000372 0.136542 0.015297 
0.001199 0.123542 0.015265 
0.001199 0.136542 0.015227 
-0.000138 0.132792 0.014546 
0.001449 0.132787 0.014546 
0.000699 0.128292 0.015503 
-0.000051 0.118292 0.015101 
-0.000128 0.133042 0.014546 
0.001417 0.133042 0.014546 
-0.000051 0.133292 0.014426 
0.001199 0.134792 0.015350 
0.001393 0.133292 0.014546 
0.000449 0.135042 0.015376 
0.000699 0.139792 0.015522 
0.001367 0.133542 0.014546 
0.000699 0.135042 0.015467 
-0.000029 0.133792 0.014546 
0.001349 0.133792 0.014546 
-0.000008 0.134042 0.014546 
0.001364 0.134042 0.014546 
-0.000020 0.134292 0.014546 
0.001370 0.134292 0.014546 
0.001194 0.118292 0.015297 
0.001371 0.134542 0.014546 
-0.000051 0.134792 0.014486 
0.000199 0.136792 0.015269 
0.001366 0.134792 0.014546 
-0.000094 0.135042 0.014546 
0.000949 0.128292 0.015452 
0.001365 0.135042 0.014546 
-0.000143 0.135292 0.014546 
0.001364 0.135292 0.014546 
-0.000183 0.135542 0.014546 
0.001199 0.135542 0.014335 
0.001397 0.135542 0.014546 
-0.000206 0.135792 0.014546 
0.000199 0.128542 0.015311 
0.001441 0.135792 0.014546 
-0.000217 0.136042 0.014546 
0.000449 0.128542 0.015413 
0.001271 0.140792 0.015297 
0.000699 0.128542 0.015516 
-0.000218 0.136292 0.014546 
0.000949 0.128542 0.015465 
-0.000301 0.143292 0.015091 
-0.000221 0.136542 0.014546 
0.001449 0.136542 0.014515 
0.001199 0.128542 0.015348 
-0.000211 0.136792 0.014546 
0.001449 0.136792 0.014513 
0.000199 0.128792 0.015322 
-0.000184 0.137042 0.014546 
0.000449 0.128792 0.015434 
0.000699 0.128792 0.015539 
-0.000167 0.137292 0.014546 
0.000949 0.128792 0.015477 
-0.000147 0.137542 0.014546 
0.001449 0.137460 0.014546 
0.000699 0.136792 0.015290 
-0.000134 0.137792 0.014546 
0.001423 0.137792 0.014546 
-0.000051 0.138042 0.014367 
-0.000123 0.138042 0.014546 
0.001393 0.138042 0.014546 
0.000949 0.135042 0.015447 
0.001199 0.118542 0.015252 
0.001353 0.138292 0.014546 
-0.000051 0.138542 0.014473 
-0.000051 0.124792 0.015081 
0.001325 0.138542 0.014546 
-0.000051 0.138792 0.014502 
0.000199 0.129042 0.015318 
0.001305 0.138792 0.014546 
-0.000051 0.139042 0.014465 
0.000484 0.136792 0.015297 
0.001296 0.139042 0.014546 
0.000949 0.136792 0.015281 
-0.000099 0.139292 0.014546 
0.001199 0.139292 0.014299 
0.001287 0.139292 0.014546 
-0.000110 0.139542 0.014546 
0.001199 0.139542 0.014371 
0.001268 0.139542 0.014546 
-0.000111 0.139792 0.014546 
0.001199 0.139792 0.014402 
0.001271 0.139792 0.014546 
-0.000124 0.140042 0.014546 
0.001199 0.140042 0.014409 
0.001285 0.140042 0.014546 
-0.000126 0.140292 0.014546 
0.001199 0.136042 0.015339 
0.001301 0.140292 0.014546 
-0.000145 0.140542 0.014546 
-0.000170 0.143292 0.015297 
0.001325 0.140542 0.014546 
-0.000164 0.140792 0.014546 
0.001199 0.136792 0.015175 
0.001362 0.140792 0.014546 
-0.000175 0.141042 0.014546 
0.000449 0.129042 0.015440 
0.001355 0.141042 0.014546 
-0.000176 0.141292 0.014546 
0.001336 0.141292 0.014546 
-0.000152 0.141542 0.014546 
0.001323 0.141542 0.014546 
-0.000134 0.141792 0.014546 
0.001301 0.141792 0.014546 
-0.000141 0.142042 0.014546 
0.001286 0.142042 0.014546 
-0.000143 0.142292 0.014546 
0.001276 0.142292 0.014546 
-0.000146 0.142542 0.014546 
0.001278 0.142542 0.014546 
-0.000301 0.142792 0.014303 
-0.000142 0.142792 0.014546 
0.000199 0.141042 0.015175 
0.000699 0.129042 0.015514 
-0.000167 0.143042 0.014546 
0.001252 0.143042 0.014546 
-0.000162 0.143292 0.014546 
-0.000051 0.137042 0.015095 
0.000949 0.129042 0.015442 
0.001199 0.129042 0.015312 
0.000199 0.137042 0.015274 
0.000449 0.135292 0.015352 
0.001199 0.118792 0.015273 
0.000411 0.137042 0.015297 
0.000699 0.136959 0.015297 
0.000449 0.129292 0.015445 
0.000449 0.141042 0.015289 
0.001199 0.141792 0.015108 
0.000949 0.137042 0.015243 
0.000699 0.129292 0.015495 
0.000949 0.129292 0.015428 
0.000449 0.129542 0.015434 
-0.000149 0.117292 0.014797 
0.001449 0.117199 0.014797 
0.001199 0.137042 0.015131 
-0.000153 0.117542 0.014797 
0.000699 0.129542 0.015479 
-0.000051 0.137292 0.015081 
0.001436 0.117542 0.014797 
-0.000153 0.117792 0.014797 
0.001449 0.117792 0.014678 
-0.000051 0.119042 0.015051 
-0.000153 0.118042 0.014797 
0.001449 0.118042 0.014619 
0.001359 0.118042 0.014797 
-0.000147 0.118292 0.014797 
0.001449 0.118292 0.014576 
0.001345 0.118292 0.014797 
-0.000146 0.118542 0.014797 
0.000949 0.129542 0.015415 
0.001367 0.118542 0.014797 
-0.000144 0.118792 0.014797 
0.001449 0.118792 0.014593 
0.001393 0.118792 0.014797 
-0.000150 0.119042 0.014797 
0.000699 0.135292 0.015428 
0.001415 0.119042 0.014797 
-0.000155 0.119292 0.014797 
0.001449 0.119292 0.014718 
0.000199 0.137292 0.015272 
-0.000173 0.119542 0.014797 
0.000949 0.135292 0.015415 
0.001387 0.119542 0.014797 
-0.000184 0.119792 0.014797 
0.001199 0.135292 0.015331 
0.001374 0.119792 0.014797 
-0.000192 0.120042 0.014797 
-0.000051 0.119292 0.015068 
0.000188 0.119292 0.015297 
-0.000193 0.120292 0.014797 
0.001235 0.119292 0.015297 
0.001391 0.120292 0.014797 
-0.000201 0.120542 0.014797 
0.000949 0.140542 0.015463 
0.001382 0.120542 0.014797 
-0.000198 0.120792 0.014797 
0.001449 0.120792 0.014642 
0.001371 0.120792 0.014797 
-0.000191 0.121042 0.014797 
0.001449 0.121042 0.014640 
0.001371 0.121042 0.014797 
-0.000181 0.121292 0.014797 
0.001449 0.121292 0.014660 
0.001384 0.121292 0.014797 
-0.000180 0.121542 0.014797 
0.000179 0.119542 0.015297 
0.001399 0.121542 0.014797 
-0.000181 0.121792 0.014797 
0.001199 0.140542 0.015420 
0.001406 0.121792 0.014797 
-0.000174 0.122042 0.014797 
0.001449 0.122042 0.014654 
0.001403 0.122042 0.014797 
-0.000158 0.122292 0.014797 
-0.000051 0.123792 0.015088 
0.001404 0.122292 0.014797 
-0.000160 0.122542 0.014797 
0.001449 0.122542 0.014598 
0.001407 0.122542 0.014797 
-0.000163 0.122792 0.014797 
0.000949 0.137292 0.015229 
0.001410 0.122792 0.014797 
-0.000174 0.123042 0.014797 
0.000199 0.141292 0.015204 
0.001416 0.123042 0.014797 
-0.000177 0.123292 0.014797 
0.001449 0.123292 0.014688 
0.000699 0.135542 0.015402 
-0.000169 0.123542 0.014797 
0.000775 0.137292 0.015297 
0.001419 0.123542 0.014797 
-0.000161 0.123792 0.014797 
0.001403 0.123792 0.014797 
-0.000149 0.124042 0.014797 
0.001365 0.124042 0.014797 
-0.000151 0.124292 0.014797 
0.001353 0.124292 0.014797 
-0.000161 0.124542 0.014797 
0.001199 0.119599 0.015297 
0.001374 0.124542 0.014797 
-0.000161 0.124792 0.014797 
0.001449 0.124792 0.014637 
0.001381 0.124792 0.014797 
-0.000160 0.125042 0.014797 
0.001199 0.137292 0.015110 
0.001390 0.125042 0.014797 
-0.000150 0.125292 0.014797 
0.001376 0.125292 0.014797 
-0.000156 0.125542 0.014797 
0.001358 0.125542 0.014797 
-0.000159 0.125792 0.014797 
0.001353 0.125792 0.014797 
-0.000168 0.126042 0.014797 
0.001357 0.126042 0.014797 
-0.000151 0.126292 0.014797 
0.001449 0.126292 0.014598 
0.001364 0.126292 0.014797 
-0.000144 0.126542 0.014797 
0.001449 0.126542 0.014620 
0.001374 0.126542 0.014797 
-0.000148 0.126792 0.014797 
0.001449 0.126792 0.014599 
0.001385 0.126792 0.014797 
-0.000160 0.127042 0.014797 
0.001199 0.129542 0.015337 
0.001389 0.127042 0.014797 
-0.000167 0.127292 0.014797 
0.001390 0.127292 0.014797 
-0.000150 0.127542 0.014797 
0.001382 0.127542 0.014797 
-0.000135 0.127792 0.014797 
0.001386 0.127792 0.014797 
-0.000118 0.128042 0.014797 
0.001399 0.128042 0.014797 
-0.000105 0.128292 0.014797 
0.000449 0.129792 0.015407 
0.001390 0.128292 0.014797 
-0.000102 0.128542 0.014797 
0.001378 0.128542 0.014797 
-0.000103 0.128792 0.014797 
0.001371 0.128792 0.014797 
-0.000102 0.129042 0.014797 
0.001348 0.129042 0.014797 
-0.000085 0.129292 0.014797 
0.001358 0.129292 0.014797 
-0.000066 0.129542 0.014797 
0.001388 0.129542 0.014797 
-0.000064 0.129792 0.014797 
0.001419 0.129792 0.014797 
0.000949 0.141042 0.015404 
0.001429 0.130042 0.014797 
-0.000096 0.130292 0.014797 
0.001427 0.130292 0.014797 
-0.000113 0.130542 0.014797 
0.001417 0.130542 0.014797 
-0.000136 0.130792 0.014797 
0.001427 0.130792 0.014797 
-0.000159 0.131042 0.014797 
0.001433 0.131042 0.014797 
-0.000194 0.131292 0.014797 
0.001443 0.131292 0.014797 
-0.000219 0.131542 0.014797 
0.001423 0.131542 0.014797 
-0.000228 0.131792 0.014797 
0.001431 0.131792 0.014797 
-0.000218 0.132042 0.014797 
0.001444 0.132042 0.014797 
-0.000196 0.132292 0.014797 
0.000699 0.129792 0.015478 
0.000949 0.129792 0.015393 
-0.000187 0.132542 0.014797 
0.001449 0.132542 0.014680 
-0.000051 0.137542 0.015050 
-0.000051 0.120042 0.015121 
-0.000175 0.132792 0.014797 
0.001399 0.132792 0.014797 
-0.000158 0.133042 0.014797 
0.001376 0.133042 0.014797 
-0.000143 0.133292 0.014797 
0.001359 0.133292 0.014797 
-0.000123 0.133542 0.014797 
0.001338 0.133542 0.014797 
0.000699 0.136542 0.015304 
-0.000088 0.133792 0.014797 
0.001333 0.133792 0.014797 
0.000199 0.137542 0.015265 
0.000121 0.120042 0.015297 
0.001341 0.134042 0.014797 
0.001199 0.120042 0.015238 
-0.000080 0.134292 0.014797 
0.001342 0.134292 0.014797 
-0.000051 0.134542 0.014635 
0.000949 0.137542 0.015241 
0.001338 0.134542 0.014797 
0.000449 0.130042 0.015380 
0.001199 0.141042 0.015323 
0.001351 0.134792 0.014797 
-0.000100 0.135042 0.014797 
0.001376 0.135042 0.014797 
-0.000115 0.135292 0.014797 
0.001401 0.135292 0.014797 
-0.000143 0.135542 0.014797 
0.001435 0.135542 0.014797 
-0.000169 0.135792 0.014797 
0.001439 0.135792 0.014797 
-0.000199 0.136042 0.014797 
0.001449 0.136042 0.014621 
0.001426 0.136042 0.014797 
-0.000222 0.136292 0.014797 
0.001449 0.136292 0.014597 
0.001405 0.136292 0.014797 
-0.000248 0.136542 0.014797 
-0.000051 0.120292 0.015141 
0.001389 0.136542 0.014797 
-0.000263 0.136792 0.014797 
0.001199 0.137542 0.015107 
0.001369 0.136792 0.014797 
-0.000260 0.137042 0.014797 
0.001449 0.137042 0.014580 
0.001350 0.137042 0.014797 
-0.000242 0.137292 0.014797 
0.001449 0.137292 0.014559 
0.001327 0.137292 0.014797 
-0.000206 0.137542 0.014797 
0.001296 0.137542 0.014797 
-0.000186 0.137792 0.014797 
0.001290 0.137792 0.014797 
-0.000171 0.138042 0.014797 
0.001292 0.138042 0.014797 
-0.000142 0.138292 0.014797 
0.001286 0.138292 0.014797 
-0.000113 0.138542 0.014797 
0.001270 0.138542 0.014797 
0.000115 0.120292 0.015297 
0.001262 0.138792 0.014797 
-0.000092 0.139042 0.014797 
0.001262 0.139042 0.014797 
0.000199 0.137792 0.015271 
0.001260 0.139292 0.014797 
0.000449 0.143292 0.015166 
0.001260 0.139542 0.014797 
-0.000099 0.139792 0.014797 
0.001273 0.139792 0.014797 
0.001199 0.120292 0.015271 
0.001295 0.140042 0.014797 
0.000699 0.140792 0.015429 
0.001313 0.140292 0.014797 
-0.000105 0.140542 0.014797 
0.001315 0.140542 0.014797 
0.000949 0.137792 0.015264 
0.001336 0.140792 0.014797 
-0.000138 0.141042 0.014797 
0.001339 0.141042 0.014797 
-0.000165 0.141292 0.014797 
0.001325 0.141292 0.014797 
-0.000178 0.141542 0.014797 
0.001311 0.141542 0.014797 
-0.000188 0.141792 0.014797 
0.001301 0.141792 0.014797 
-0.000192 0.142042 0.014797 
0.001289 0.142042 0.014797 
-0.000200 0.142292 0.014797 
0.001252 0.142292 0.014797 
-0.000216 0.142542 0.014797 
-0.000174 0.142792 0.014797 
0.001199 0.142792 0.014671 
0.000699 0.130042 0.015470 
0.001126 0.142792 0.014797 
-0.000195 0.143042 0.014797 
0.000257 0.143292 0.015297 
0.001108 0.143042 0.014797 
-0.000196 0.143292 0.014797 
0.001199 0.143292 0.014610 
0.000045 0.134292 0.015046 
-0.000051 0.120542 0.015130 
0.001199 0.137792 0.015085 
-0.000551 0.143434 0.015297 
0.000949 0.130042 0.015382 
0.001199 0.130042 0.015316 
0.001199 0.120510 0.015297 
0.000949 0.135542 0.015392 
0.000699 0.130292 0.015466 
0.000239 0.138042 0.015297 
0.000949 0.130292 0.015388 
-0.000051 0.120792 0.015124 
0.000449 0.130542 0.015364 
0.000699 0.130542 0.015466 
0.000949 0.130542 0.015408 
-0.000129 0.117292 0.015046 
0.001464 0.117292 0.015046 
0.000449 0.130792 0.015368 
0.000949 0.139792 0.015464 
0.001465 0.117542 0.015046 
0.000699 0.130792 0.015461 
0.000949 0.130792 0.015425 
0.001442 0.117792 0.015046 
-0.000095 0.118042 0.015046 
0.001414 0.118042 0.015046 
0.001365 0.118292 0.015046 
-0.000095 0.118542 0.015046 
0.001344 0.118542 0.015046 
-0.000063 0.118792 0.015046 
0.001363 0.118792 0.015046 
0.000449 0.131042 0.015352 
0.001391 0.119042 0.015046 
0.000699 0.131042 0.015440 
0.001387 0.119292 0.015046 
-0.000100 0.119542 0.015046 
0.001363 0.119542 0.015046 
-0.000126 0.119792 0.015046 
0.001348 0.119792 0.015046 
0.000949 0.140792 0.015438 
0.001357 0.120042 0.015046 
-0.000172 0.120292 0.015046 
0.001365 0.120292 0.015046 
-0.000172 0.120542 0.015046 
0.001362 0.120542 0.015046 
-0.000174 0.120792 0.015046 
0.001362 0.120792 0.015046 
-0.000150 0.121042 0.015046 
0.001351 0.121042 0.015046 
-0.000131 0.121292 0.015046 
0.001336 0.121292 0.015046 
-0.000123 0.121542 0.015046 
0.001350 0.121542 0.015046 
0.001144 0.123792 0.015297 
0.001348 0.121792 0.015046 
0.001146 0.141292 0.015297 
0.001359 0.122042 0.015046 
-0.000102 0.122292 0.015046 
0.001361 0.122292 0.015046 
0.000949 0.131042 0.015374 
0.001339 0.122542 0.015046 
0.000449 0.131292 0.015335 
0.001305 0.122792 0.015046 
-0.000066 0.123042 0.015046 
0.001311 0.123042 0.015046 
0.000699 0.131292 0.015399 
0.001315 0.123292 0.015046 
-0.000098 0.123542 0.015046 
0.001319 0.123542 0.015046 
0.001199 0.139792 0.015390 
0.001326 0.123792 0.015046 
-0.000080 0.124042 0.015046 
0.001321 0.124042 0.015046 
