-0.077675 -0.509725 0.030496 
-0.096371 -0.497484 0.024694 
0.080668 -0.525269 0.032206 
0.052970 -0.524741 0.034999 
0.033613 -0.524549 0.035275 
0.013971 -0.524481 0.035302 
-0.005672 -0.524413 0.035275 
-0.025144 -0.524163 0.035043 
-0.044172 -0.523583 0.034293 
0.090923 -0.545599 0.031038 
0.072477 -0.544496 0.034006 
0.053206 -0.544233 0.035063 
0.033637 -0.544183 0.035302 
0.013971 -0.544165 0.035302 
-0.005682 -0.544071 0.035193 
-0.025038 -0.543638 0.034741 
-0.043345 -0.551884 0.033064 
-0.061511 -0.531488 0.031754 
-0.078037 -0.537396 0.025465 
0.105497 -0.577732 0.030030 
0.090709 -0.575462 0.032932 
0.072705 -0.564318 0.034310 
0.053345 -0.563906 0.035102 
0.033655 -0.563849 0.035302 
0.013989 -0.563831 0.035302 
-0.005588 -0.563737 0.035102 
-0.024863 -0.563259 0.034306 
0.072611 -0.584020 0.034732 
0.053323 -0.583627 0.035193 
0.033655 -0.583533 0.035302 
0.014012 -0.583465 0.035275 
-0.005358 -0.583260 0.035004 
-0.033461 -0.582132 0.032411 
-0.060779 -0.576329 0.025076 
0.100352 -0.604005 0.032206 
0.072654 -0.603477 0.034999 
0.053297 -0.603285 0.035275 
0.033655 -0.603217 0.035302 
0.014002 -0.603123 0.035193 
-0.005237 -0.602714 0.034748 
-0.023188 -0.611158 0.033013 
-0.038128 -0.608700 0.030183 
0.110581 -0.624324 0.031049 
0.092161 -0.623232 0.034006 
0.072890 -0.622969 0.035063 
0.053321 -0.622919 0.035302 
0.033673 -0.622883 0.035302 
0.014096 -0.622789 0.035102 
0.124970 -0.656523 0.029905 
0.092389 -0.643054 0.034310 
0.073028 -0.642642 0.035102 
0.053339 -0.642585 0.035302 
0.033709 -0.642517 0.035275 
0.014368 -0.642312 0.035004 
-0.013779 -0.631478 0.032706 
-0.039280 -0.636309 0.025388 
0.110348 -0.654199 0.032929 
0.092295 -0.662756 0.034732 
0.073007 -0.662363 0.035193 
0.053357 -0.662251 0.035302 
0.033810 -0.662120 0.035193 
-0.003872 -0.651260 0.033785 
-0.027065 -0.658962 0.027354 
0.129437 -0.693467 0.030807 
0.111126 -0.682526 0.033800 
0.092338 -0.682213 0.034999 
0.072981 -0.682021 0.035275 
0.053393 -0.681885 0.035275 
0.034037 -0.681635 0.035043 
0.014962 -0.671367 0.034504 
0.111796 -0.702056 0.034004 
0.092574 -0.701705 0.035063 
0.073023 -0.701637 0.035302 
0.053494 -0.701488 0.035193 
0.034368 -0.701055 0.034741 
-0.001461 -0.688809 0.031642 
-0.017384 -0.694043 0.024973 
0.148903 -0.726070 0.026717 
0.138378 -0.715709 0.029090 
0.112050 -0.721851 0.034341 
0.092712 -0.721378 0.035102 
0.073064 -0.721253 0.035275 
0.053680 -0.721003 0.035043 
0.034831 -0.720418 0.034252 
0.016702 -0.709242 0.033020 
-0.003031 -0.714777 0.027027 
0.137853 -0.742727 0.031895 
0.111973 -0.741507 0.034748 
0.092691 -0.741099 0.035193 
0.073054 -0.740911 0.035193 
0.053800 -0.740489 0.034752 
0.020621 -0.745964 0.030496 
0.001871 -0.733525 0.024719 
0.154880 -0.762895 0.027030 
0.130758 -0.761220 0.033823 
0.112022 -0.760949 0.034999 
0.092683 -0.760738 0.035275 
0.073148 -0.760577 0.035102 
0.053966 -0.760121 0.034328 
0.035789 -0.748834 0.033077 
0.131396 -0.780756 0.033985 
0.112258 -0.780440 0.035063 
0.092743 -0.780323 0.035275 
0.073420 -0.780099 0.035004 
0.045583 -0.779049 0.032526 
0.019751 -0.774014 0.025439 
0.168302 -0.805445 0.027002 
0.149530 -0.792278 0.031679 
0.131675 -0.800592 0.034306 
0.112415 -0.800096 0.035102 
0.092862 -0.799908 0.035193 
0.073751 -0.799488 0.034737 
0.047648 -0.798036 0.032083 
0.157460 -0.821579 0.031980 
0.131641 -0.820254 0.034737 
0.112430 -0.819767 0.035167 
0.093089 -0.819423 0.035043 
0.074835 -0.828221 0.033996 
0.037139 -0.813975 0.027124 
0.150400 -0.839935 0.033828 
0.131725 -0.839667 0.034999 
0.112504 -0.839344 0.035167 
0.057606 -0.826625 0.031680 
0.041821 -0.832064 0.025195 
0.176087 -0.861198 0.027310 
0.151026 -0.859327 0.033877 
0.131971 -0.859096 0.035032 
0.112714 -0.858809 0.035043 
0.093653 -0.848515 0.034506 
0.077034 -0.865904 0.031673 
0.056062 -0.852592 0.027192 
0.169748 -0.880444 0.031084 
0.151432 -0.879110 0.033996 
0.132103 -0.878712 0.034954 
0.112860 -0.878251 0.034752 
0.060957 -0.871015 0.025079 
0.197458 -0.902723 0.017763 
0.183939 -0.912417 0.030106 
0.151491 -0.898971 0.034328 
0.132221 -0.898422 0.034902 
0.113050 -0.897827 0.034323 
0.094889 -0.886396 0.033105 
0.170486 -0.928745 0.032831 
0.160534 -0.909631 0.033460 
0.132526 -0.917877 0.034734 
0.104762 -0.916329 0.032456 
0.078980 -0.909825 0.025515 
0.193115 -0.929334 0.026335 
0.143029 -0.937065 0.033496 
0.091813 -0.932618 0.027146 
0.183102 -0.954322 0.027649 
0.159572 -0.960698 0.027008 
0.128766 -0.959689 0.025465 
0.116153 -0.943404 0.031272 
0.141768 0.984536 0.015685 
0.198901 0.959913 0.020647 
0.193857 0.931493 0.027092 
0.078054 0.934731 0.010891 
0.202175 0.918234 0.017581 
0.067596 0.907430 0.014571 
0.045274 0.859464 0.013662 
0.183964 0.843968 0.023997 
0.181397 0.812832 0.020358 
0.026143 0.809629 0.014031 
0.171287 0.783440 0.024071 
0.007246 0.768097 0.011092 
0.163185 0.744725 0.021974 
-0.012243 0.728562 0.010657 
-0.033809 0.682296 0.013387 
0.145363 0.676659 0.023559 
0.143946 0.655269 0.020406 
-0.045863 0.650687 0.001119 
-0.052193 0.632735 0.013584 
0.127764 0.626566 0.027666 
0.126070 0.597435 0.023733 
-0.065859 0.591790 0.001585 
0.124672 0.574211 0.021599 
-0.072338 0.573413 0.014154 
0.122290 0.542089 0.015649 
0.107043 0.518869 0.025922 
0.105612 0.497118 0.021514 
0.103896 0.480352 0.018022 
-0.124770 0.453826 0.001119 
0.086962 0.437110 0.021274 
-0.131414 0.435709 0.014004 
0.084916 0.418585 0.017379 
-0.150553 0.394662 0.010830 
0.073167 0.381021 0.018403 
0.067361 0.358429 0.020801 
-0.169762 0.355417 0.009231 
0.596642 0.294748 0.006063 
0.053412 0.303561 0.020300 
-0.191172 0.298285 0.012728 
0.612117 0.280749 0.012245 
0.052752 0.282455 0.015958 
0.628074 0.262866 0.008242 
0.594774 0.262707 0.013812 
0.578601 0.271771 0.009561 
0.568546 0.270944 0.003432 
0.046829 0.262638 0.017719 
0.032027 0.262540 0.027686 
0.603946 0.243025 0.014226 
0.585027 0.243334 0.014806 
0.566810 0.243719 0.012324 
0.552283 0.243752 0.004856 
0.031322 0.242509 0.024771 
-0.209937 0.243389 0.015656 
0.603654 0.223234 0.013734 
0.584770 0.223492 0.015203 
0.565545 0.223753 0.014454 
0.547789 0.223758 0.010857 
0.531610 0.212536 0.006683 
0.029658 0.222231 0.022218 
0.603107 0.203616 0.012974 
0.584658 0.203745 0.015100 
0.565159 0.203923 0.015318 
0.546147 0.204178 0.013761 
0.012747 0.203439 0.028047 
0.584519 0.184075 0.014753 
0.565122 0.184155 0.015515 
0.545549 0.184337 0.015001 
0.526919 0.184820 0.012418 
0.510981 0.185706 0.005178 
0.012112 0.183926 0.025405 
-0.233698 0.185231 0.015581 
0.601621 0.164026 0.010377 
0.584326 0.164312 0.014261 
0.565122 0.164445 0.015442 
0.545438 0.164497 0.015509 
0.526047 0.164739 0.014472 
0.508009 0.165026 0.010836 
0.011391 0.163840 0.022263 
-0.243797 0.174936 0.005350 
0.584242 0.144516 0.013901 
0.565329 0.144717 0.015540 
0.545681 0.144774 0.015861 
0.526034 0.144871 0.015577 
0.507031 0.145171 0.013994 
0.492074 0.154359 0.006288 
0.015962 0.141569 0.016181 
-0.006157 0.144368 0.028652 
-0.255785 0.147063 0.013710 
0.577411 0.115461 0.015979 
0.566422 0.125077 0.016233 
0.546896 0.125090 0.016984 
0.527212 0.125103 0.017049 
0.507694 0.125285 0.016459 
0.489043 0.125691 0.013883 
0.472626 0.126387 0.006225 
0.012362 0.122554 0.020380 
-0.005215 0.123867 0.028291 
-0.275957 0.124790 0.014443 
0.550531 0.105500 0.019985 
0.530788 0.105437 0.020593 
0.511028 0.105567 0.020651 
0.491605 0.105779 0.019703 
0.473094 0.105608 0.016361 
0.456471 0.102825 0.009403 
0.020589 0.102003 0.020416 
-0.001655 0.100210 0.030127 
-0.318514 0.095428 0.029730 
-0.345971 0.091558 0.034389 
-0.334565 0.099260 0.020403 
-0.614437 0.087027 0.037928 
-0.604512 0.098245 0.014431 
-0.640071 0.086554 0.034321 
-0.626429 0.096291 0.015010 
-0.661917 0.085002 0.032469 
-0.650537 0.094501 0.011804 
0.589677 0.098629 0.014496 
0.577273 0.087552 0.021184 
0.558021 0.086348 0.025287 
0.538031 0.086068 0.027473 
0.517979 0.086211 0.028259 
0.498055 0.086579 0.028174 
0.478551 0.086665 0.027024 
0.459583 0.085377 0.023794 
0.439609 0.080827 0.017206 
0.055127 0.079499 0.009887 
0.035571 0.081908 0.023027 
-0.732102 0.068538 0.030364 
-0.722812 0.079577 0.012642 
-0.745586 0.076025 0.009941 
0.608357 0.066972 0.010623 
0.591075 0.070295 0.023444 
0.407963 0.051185 0.039622 
0.417534 0.066632 0.017846 
0.382612 0.044642 0.035393 
0.202764 0.053592 0.013114 
0.182848 0.053327 0.013881 
0.162762 0.053419 0.014314 
0.141931 0.053684 0.015263 
0.117822 0.054576 0.017900 
-0.789965 0.061186 0.012590 
-0.812055 0.052703 0.010220 
0.621051 0.036936 0.035311 
-0.835778 0.040983 0.007904 
-0.861355 0.035662 -0.005696 
-0.859917 0.014657 0.006891 
-0.876169 0.013817 -0.006742 
-0.846090 0.000099 0.017751 
0.663337 -0.019734 0.039948 
0.648465 -0.027904 0.046785 
0.627013 -0.038716 0.041136 
-0.822030 -0.030133 0.024789 
0.605461 -0.049591 0.039811 
0.584346 -0.058131 0.040712 
0.406928 -0.058056 0.033276 
0.385392 -0.050541 0.034964 
0.356392 -0.048323 0.026021 
0.338558 -0.036611 0.040469 
0.317324 -0.045118 0.025861 
0.279910 -0.043845 0.027991 
0.261143 -0.037723 0.033135 
0.234491 -0.043777 0.030223 
0.211624 -0.046073 0.029964 
0.191223 -0.046796 0.030141 
0.171425 -0.046981 0.030197 
0.151537 -0.047198 0.030211 
0.130780 -0.048201 0.030250 
0.107015 -0.051749 0.030465 
-0.780070 -0.055671 0.030367 
-0.808220 -0.045584 0.023667 
0.596789 -0.068940 0.023023 
0.578929 -0.082298 0.024240 
0.563690 -0.065638 0.040636 
0.542879 -0.071603 0.039972 
0.522862 -0.074859 0.039108 
0.485395 -0.075310 0.039696 
0.465861 -0.074324 0.039088 
0.445999 -0.072289 0.036241 
0.426471 -0.069925 0.027703 
0.085460 -0.067426 0.016589 
0.053113 -0.066559 0.032290 
0.029159 -0.074490 0.034003 
-0.753536 -0.068268 0.031120 
0.558531 -0.087641 0.026644 
0.534499 -0.091067 0.027706 
0.508316 -0.101234 0.023679 
0.485779 -0.091150 0.027163 
0.449741 -0.085221 0.022715 
0.009788 -0.093060 0.032233 
-0.335040 -0.094727 0.035130 
-0.359894 -0.093034 0.037264 
-0.610465 -0.096880 0.034480 
-0.633197 -0.094275 0.034303 
-0.656460 -0.092662 0.029932 
-0.678512 -0.087079 0.032797 
-0.700575 -0.080055 0.035719 
-0.728291 -0.073600 0.035085 
0.582061 -0.110973 0.013346 
0.563000 -0.110208 0.017968 
0.542041 -0.110125 0.020072 
0.475860 -0.105250 0.017220 
0.017500 -0.104248 0.025575 
-0.007178 -0.111708 0.031806 
-0.283818 -0.108333 0.031737 
-0.310867 -0.099897 0.032396 
-0.386667 -0.098049 0.031075 
-0.410307 -0.097967 0.033862 
-0.431125 -0.098318 0.034808 
-0.451224 -0.098825 0.034899 
-0.470839 -0.099705 0.034427 
-0.508524 -0.100115 0.034288 
-0.528741 -0.098757 0.035352 
-0.549300 -0.098514 0.035148 
-0.569330 -0.098410 0.034691 
0.582955 -0.132113 0.011729 
0.564557 -0.130787 0.015081 
0.545023 -0.130208 0.016329 
0.523622 -0.120171 0.018326 
0.498819 -0.127655 0.014110 
0.470888 -0.120866 0.007142 
0.012119 -0.131603 0.021310 
-0.006026 -0.131930 0.029007 
-0.260080 -0.123728 0.029592 
0.601396 -0.155806 0.007722 
0.573956 -0.161531 0.013778 
0.564930 -0.150828 0.014580 
0.545961 -0.149836 0.015021 
0.503507 -0.144343 0.011862 
0.015298 -0.150238 0.017514 
-0.004533 -0.154676 0.027647 
-0.260015 -0.144329 0.013631 
0.590584 -0.171936 0.012401 
0.537561 -0.168064 0.013671 
0.520775 -0.155043 0.012851 
0.607190 -0.191595 0.008133 
0.575476 -0.198737 0.014089 
0.557014 -0.188446 0.014353 
0.527250 -0.193672 0.008191 
0.512753 -0.180209 0.005922 
0.009984 -0.191572 0.023936 
-0.238083 -0.181655 0.009515 
0.593409 -0.210032 0.012577 
0.543321 -0.203398 0.011766 
0.032170 -0.211429 0.012507 
0.013335 -0.215259 0.025863 
0.594161 -0.229710 0.013059 
0.561159 -0.223341 0.012196 
-0.200766 -0.224329 0.026793 
0.616681 -0.243134 0.010518 
0.595288 -0.248041 0.013367 
0.554306 -0.239204 0.007047 
0.034416 -0.250989 0.018265 
0.610983 -0.274702 0.010640 
0.597374 -0.265053 0.012461 
0.030909 -0.270936 0.023858 
0.621156 -0.293432 0.008701 
0.049395 -0.282258 0.012991 
0.033352 -0.294183 0.025865 
-0.182385 -0.292759 0.024210 
0.637693 -0.311742 -0.002955 
-0.192878 -0.301490 0.006428 
0.051606 -0.352214 0.024868 
-0.159935 -0.341274 0.026833 
0.065143 -0.388438 0.023255 
0.068839 -0.411388 0.024449 
0.094496 -0.448255 0.006509 
-0.129440 -0.431094 0.018326 
0.087282 -0.470566 0.024499 
0.111836 -0.509325 0.010367 
0.099098 -0.498111 0.023146 
-0.089762 -0.529446 0.018334 
0.107789 -0.549322 0.024819 
-0.064426 -0.557602 0.027380 
0.118921 -0.576846 0.023188 
-0.076094 -0.575271 0.012354 
0.127238 -0.627930 0.024823 
-0.050247 -0.628414 0.018126 
0.137911 -0.655897 0.022623 
0.146852 -0.679290 0.019050 
-0.022109 -0.675974 0.027003 
0.162143 -0.745261 0.018779 
0.165502 -0.786892 0.025076 
0.008522 -0.765711 0.018321 
0.181512 -0.824075 0.019137 
0.174180 -0.841166 0.026947 
0.186081 -0.884748 0.025539 
0.074877 -0.891707 0.027283 
0.070253 -0.916030 0.014946 
0.202613 -0.938726 0.018443 
0.139192 -0.969253 0.018128 
0.104960 -0.960134 0.016937 
0.095847 0.964155 0.009991 
0.198027 0.898290 0.019106 
0.195437 0.877265 0.016579 
0.190339 0.845272 0.012979 
0.183815 0.811879 0.009682 
0.174825 0.778897 0.014074 
0.002422 0.753508 0.018027 
0.165054 0.732785 0.009669 
0.156245 0.700110 0.014074 
0.142405 0.639926 0.016237 
0.137938 0.621385 0.013950 
0.134253 0.598142 0.011029 
0.129875 0.571539 0.003756 
0.123354 0.555973 0.019998 
-0.076796 0.556796 0.019516 
0.117552 0.523322 0.012387 
-0.112545 0.485456 0.013387 
0.100316 0.463758 0.013411 
-0.135907 0.419081 0.019492 
0.074445 0.399978 0.022718 
-0.155133 0.379831 0.017769 
0.626439 0.305186 -0.001219 
-0.174314 0.340631 0.016021 
0.611523 0.297951 -0.012115 
0.064902 0.331154 0.014377 
0.574472 0.276388 -0.005197 
0.635705 0.288318 0.005958 
0.627157 0.242402 0.006294 
0.540003 0.230792 -0.005475 
0.044641 0.241623 0.011880 
0.628311 0.227415 -0.006801 
0.033498 0.211572 0.015822 
-0.223332 0.217675 0.002793 
0.618659 0.213323 0.008459 
0.037759 0.208737 0.000600 
0.609061 0.184440 0.008323 
0.499382 0.177732 -0.007238 
0.026192 0.184624 0.014065 
0.616992 0.175031 -0.001434 
0.024309 0.162651 0.008919 
0.604322 0.145881 0.007005 
-0.270955 0.138752 -0.003041 
0.458775 0.117352 -0.006392 
0.025645 0.123310 0.008538 
-0.296488 0.109827 0.017008 
-0.289950 0.122129 -0.002373 
-0.374817 0.100217 0.015177 
-0.394505 0.100279 0.015286 
-0.414150 0.100359 0.015370 
-0.433782 0.100359 0.015470 
-0.453577 0.100397 0.015612 
-0.473481 0.100653 0.015517 
-0.493168 0.100947 0.015271 
-0.512602 0.100900 0.015293 
-0.532127 0.100564 0.015458 
-0.551878 0.100281 0.015188 
-0.571494 0.100165 0.013809 
-0.580671 0.102283 0.002361 
0.600156 0.116198 0.007292 
0.037324 0.100861 0.005020 
-0.675292 0.088414 0.018204 
-0.665609 0.095506 -0.004477 
-0.699809 0.083836 0.015432 
0.602741 0.084642 0.008134 
0.096208 0.060769 0.014202 
0.075412 0.067213 0.012816 
-0.768541 0.068739 0.012776 
-0.764940 0.078789 -0.015325 
-0.780944 0.072985 -0.005203 
0.393836 0.054413 0.019639 
0.372746 0.048106 0.015354 
0.352581 0.043816 0.014773 
0.331532 0.042260 0.014273 
0.310226 0.043928 0.012575 
0.288058 0.048284 0.009453 
0.261913 0.051762 0.011289 
0.273940 0.056619 -0.003740 
-0.825194 0.057815 -0.010094 
0.657657 0.017454 0.035672 
0.637462 0.029157 0.032099 
0.618761 0.048765 0.013093 
-0.886909 0.013872 -0.022870 
0.668025 -0.000267 0.027110 
0.653725 0.001262 0.013218 
-0.859887 -0.011105 0.008472 
-0.878744 -0.014225 -0.007263 
0.652930 -0.019119 0.018446 
0.637425 -0.034955 0.022840 
-0.844496 -0.026611 0.012684 
-0.866538 -0.028937 -0.002477 
0.616765 -0.051146 0.021340 
0.387442 -0.057300 0.015050 
0.367362 -0.052539 0.016049 
0.298964 -0.047122 0.021872 
0.271971 -0.053847 0.013969 
-0.830232 -0.045436 0.010303 
0.608443 -0.068094 0.006413 
0.407372 -0.066607 0.012849 
0.245197 -0.058375 0.009768 
0.221187 -0.058155 0.013150 
0.200050 -0.058795 0.013950 
0.180005 -0.059066 0.014145 
0.160225 -0.059168 0.014158 
0.140280 -0.059558 0.014108 
0.119782 -0.061261 0.013794 
0.066517 -0.074838 0.016322 
-0.765298 -0.075517 0.014866 
-0.793287 -0.065181 0.012347 
-0.824262 -0.058364 0.000621 
0.596455 -0.089857 0.010274 
0.426645 -0.080370 0.009544 
0.041739 -0.089596 0.018146 
-0.676741 -0.094906 0.013464 
-0.696639 -0.090166 0.015365 
-0.717428 -0.086115 0.015647 
-0.738951 -0.081260 0.017349 
0.596633 -0.112013 0.005206 
0.448870 -0.099529 0.006994 
0.026014 -0.111563 0.017201 
-0.301676 -0.114516 0.013524 
-0.324076 -0.105776 0.017692 
-0.348841 -0.103500 0.016430 
-0.371036 -0.104161 0.014539 
-0.395201 -0.107986 0.002329 
-0.404289 -0.105832 0.013700 
-0.423981 -0.105894 0.015157 
-0.443830 -0.106035 0.015559 
-0.463532 -0.106301 0.015516 
-0.483023 -0.106611 0.015293 
-0.502458 -0.106658 0.015271 
-0.522144 -0.106364 0.015533 
-0.542067 -0.106090 0.015694 
-0.561944 -0.105971 0.015574 
-0.581600 -0.105801 0.015373 
-0.594830 -0.101776 0.024479 
-0.620944 -0.102518 0.018307 
-0.643679 -0.101033 0.014297 
0.598911 -0.136913 0.005741 
0.025553 -0.138217 0.008148 
-0.279632 -0.127161 0.013156 
0.483905 -0.149636 -0.001051 
-0.274121 -0.141187 -0.003904 
0.498247 -0.168449 0.000090 
0.021728 -0.168636 0.012088 
-0.238740 -0.162639 0.019598 
0.026747 -0.194408 0.012877 
-0.220326 -0.205210 0.017424 
0.538457 -0.218855 0.006294 
0.036417 -0.228878 0.012151 
-0.214900 -0.233893 0.012113 
0.541086 -0.236126 -0.003481 
0.046149 -0.246124 0.001434 
0.632251 -0.261580 0.005164 
0.570784 -0.251100 0.010510 
0.576176 -0.274756 0.005032 
-0.198678 -0.281316 0.009692 
0.600110 -0.300505 0.002730 
0.574507 -0.282099 -0.002963 
0.056331 -0.307697 0.012295 
0.634391 -0.301567 0.003158 
0.066105 -0.324435 0.001816 
0.054638 -0.329974 0.018540 
-0.177951 -0.320955 0.019540 
0.069146 -0.349151 0.007028 
-0.177162 -0.338871 0.010569 
-0.161517 -0.358249 0.019627 
0.079138 -0.399532 0.011902 
-0.158990 -0.377619 0.010646 
-0.148074 -0.388549 0.019130 
0.090572 -0.431062 0.008044 
-0.140060 -0.418094 0.010020 
0.099226 -0.468660 0.011520 
-0.124679 -0.459496 0.010396 
0.106655 -0.491187 0.010610 
-0.113329 -0.486329 0.013500 
0.109570 -0.527180 0.019278 
-0.100547 -0.516608 0.010228 
0.117519 -0.536445 0.006161 
0.128967 -0.578922 0.010567 
0.129107 -0.605781 0.019367 
-0.061045 -0.596392 0.019149 
0.138119 -0.625219 0.011933 
-0.060217 -0.615603 0.010006 
0.143766 -0.647841 0.009017 
-0.045875 -0.656374 0.010383 
0.155552 -0.696133 0.012883 
-0.034453 -0.683040 0.013714 
0.161431 -0.724831 0.010534 
-0.021195 -0.712286 0.011372 
0.169785 -0.766318 0.011474 
-0.002232 -0.752661 0.010194 
0.178014 -0.794939 0.010759 
0.019766 -0.794212 0.020336 
0.021575 -0.813213 0.012377 
0.188313 -0.844499 0.011674 
0.029497 -0.833143 0.009874 
0.194386 -0.874306 0.015312 
0.038229 -0.850694 0.012207 
0.056889 -0.889196 0.011805 
0.191497 -0.961084 0.015083 
0.167308 -0.969133 0.009980 
0.168771 0.974169 0.003710 
0.148614 0.973201 0.002092 
0.198418 0.959691 0.008191 
0.132674 0.963033 -0.004254 
0.114901 0.970811 0.003058 
0.188333 0.942084 -0.000285 
0.162624 0.949943 -0.006420 
0.097697 0.948695 -0.003859 
0.199138 0.924465 0.005351 
0.178594 0.922481 -0.006016 
0.083607 0.931558 -0.001082 
0.072363 0.908386 -0.000488 
0.190449 0.894499 -0.000259 
0.059838 0.884350 0.001343 
0.188035 0.874759 -0.001338 
0.185189 0.857675 -0.002888 
0.045003 0.854410 -0.001976 
0.182570 0.839473 -0.002188 
0.177423 0.807541 -0.000836 
0.029547 0.819588 0.002747 
0.017392 0.786399 0.001369 
0.170622 0.766716 0.005538 
0.009386 0.756833 -0.007726 
-0.001603 0.745869 0.000226 
0.163326 0.748517 -0.001609 
-0.021131 0.706547 0.000086 
0.153360 0.687661 0.005605 
-0.034453 0.677328 -0.002167 
0.146283 0.677762 -0.006446 
0.149185 0.661298 0.003550 
0.138632 0.629992 -0.000687 
-0.050086 0.622854 -0.006803 
-0.059381 0.610623 0.000569 
0.131692 0.591511 -0.003474 
-0.070428 0.563188 -0.006721 
-0.081028 0.550191 0.001369 
-0.090452 0.530211 0.003977 
0.114213 0.512444 0.002502 
-0.099930 0.509735 0.000175 
-0.113189 0.480489 -0.002167 
0.106831 0.485744 0.000500 
0.097881 0.453916 0.002155 
0.092795 0.439612 -0.003725 
-0.130879 0.426252 -0.007369 
-0.140959 0.413123 0.000941 
0.084750 0.406090 0.002092 
-0.151046 0.386801 -0.008523 
-0.159908 0.374264 -0.001276 
0.075584 0.366350 0.000989 
-0.167807 0.345865 -0.013421 
0.068561 0.356286 -0.006304 
-0.178430 0.334495 -0.003907 
-0.185378 0.307236 -0.014476 
0.063044 0.306524 0.000892 
-0.189251 0.308623 0.000158 
0.641095 0.275091 -0.003287 
0.056662 0.275660 0.000455 
-0.200388 0.276265 -0.002287 
0.557278 0.253823 -0.006292 
-0.207501 0.257478 -0.000064 
0.052356 0.261393 -0.005252 
-0.215633 0.236766 -0.002309 
0.043907 0.228529 -0.000722 
0.625297 0.208921 -0.002726 
0.519299 0.205796 -0.002343 
-0.232873 0.198238 -0.000150 
0.032092 0.189792 -0.002092 
0.616157 0.161917 -0.006509 
0.025311 0.168369 -0.010902 
-0.254136 0.159628 -0.005357 
0.480087 0.148189 -0.004033 
0.026561 0.147488 -0.002271 
0.608421 0.129626 -0.003179 
0.029962 0.124716 -0.006872 
-0.313871 0.109324 0.001239 
-0.337806 0.105092 -0.002239 
-0.358607 0.104012 -0.003795 
-0.378398 0.103849 -0.004029 
-0.398020 0.103935 -0.004014 
-0.417637 0.103950 -0.004050 
-0.437316 0.103950 -0.004055 
-0.457044 0.103986 -0.004047 
-0.476764 0.104075 -0.004084 
-0.496422 0.104105 -0.004110 
-0.516057 0.104032 -0.004086 
-0.535720 0.103939 -0.004162 
-0.555261 0.103881 -0.004544 
-0.611686 0.102056 -0.004755 
-0.631628 0.100779 -0.005880 
0.605786 0.097188 -0.005946 
0.054307 0.087339 -0.010151 
0.037616 0.105369 -0.015755 
-0.689147 0.089832 -0.000549 
-0.730347 0.083955 -0.015722 
-0.747250 0.082297 -0.017632 
0.429542 0.083086 -0.000637 
0.252263 0.061768 -0.014597 
0.228429 0.057736 0.003143 
0.196028 0.060965 -0.004559 
0.176268 0.060937 -0.004326 
0.156238 0.061052 -0.004026 
0.135413 0.061504 -0.003410 
0.114326 0.063411 -0.003609 
0.093781 0.067378 -0.004704 
0.073682 0.074498 -0.006450 
-0.801803 0.065882 -0.006138 
0.609946 0.067288 -0.006330 
0.410412 0.068311 -0.001778 
0.389845 0.056806 -0.002849 
0.369668 0.049834 -0.003966 
0.349622 0.046821 -0.004328 
0.329519 0.047392 -0.004908 
0.309896 0.050490 -0.006415 
0.301928 0.054582 -0.017358 
-0.848347 0.046881 -0.009432 
0.635880 0.026734 0.008250 
0.616136 0.046786 -0.006884 
0.620703 0.026854 -0.010333 
0.638599 0.008202 0.000533 
0.635740 -0.011081 -0.001271 
-0.886753 -0.019185 -0.019671 
0.629324 -0.026376 -0.001105 
0.618404 -0.044089 -0.000869 
0.388080 -0.061405 -0.004855 
0.368128 -0.055793 -0.003691 
0.348576 -0.054084 -0.001691 
0.330759 -0.051678 0.010499 
0.311691 -0.055869 0.000531 
-0.852912 -0.044837 -0.006241 
0.602504 -0.066820 -0.014412 
0.407931 -0.072127 -0.006405 
0.284387 -0.061649 -0.007740 
0.260052 -0.064254 -0.006930 
0.235074 -0.068467 -0.017729 
0.226137 -0.066302 -0.006329 
0.206283 -0.066425 -0.004781 
0.186339 -0.066583 -0.004368 
0.166582 -0.066648 -0.004311 
0.146859 -0.066732 -0.004311 
0.127064 -0.067282 -0.004452 
0.107397 -0.069210 -0.004934 
0.094268 -0.069541 0.003080 
0.070108 -0.080309 -0.004475 
0.603244 -0.087491 -0.005266 
0.427290 -0.087403 -0.008717 
0.051439 -0.092360 -0.001371 
-0.695057 -0.094882 -0.004577 
-0.714909 -0.091297 -0.003870 
-0.735146 -0.088255 -0.003224 
-0.755626 -0.084835 -0.003305 
-0.777183 -0.078968 -0.002039 
-0.805667 -0.071394 -0.007563 
0.603923 -0.115496 -0.007663 
0.443920 -0.103822 -0.020228 
0.036081 -0.110453 0.003083 
-0.320208 -0.114344 -0.005604 
-0.342701 -0.109500 -0.003818 
-0.363994 -0.108454 -0.004117 
-0.391799 -0.109738 -0.014698 
-0.420680 -0.109593 -0.004544 
-0.440221 -0.109635 -0.004162 
-0.459903 -0.109676 -0.004068 
-0.479568 -0.109743 -0.004086 
-0.499203 -0.109816 -0.004110 
-0.518843 -0.109786 -0.004066 
-0.538496 -0.109682 -0.003993 
-0.558133 -0.109585 -0.004001 
-0.577754 -0.109389 -0.004011 
-0.597231 -0.109006 -0.003773 
-0.637127 -0.105868 -0.003569 
-0.659316 -0.101263 0.002251 
-0.676013 -0.099305 -0.005682 
0.030353 -0.130560 -0.004599 
-0.295976 -0.125053 -0.008526 
0.613924 -0.164641 -0.002144 
0.463729 -0.127464 -0.005416 
0.027652 -0.153306 -0.005485 
-0.254960 -0.162597 -0.002322 
0.618575 -0.203895 0.000702 
0.031116 -0.182930 -0.000705 
-0.241883 -0.185816 -0.009516 
0.625689 -0.224424 -0.000673 
0.037177 -0.212545 -0.004485 
-0.230307 -0.209536 -0.001803 
0.635076 -0.246603 -0.002152 
0.557508 -0.259499 -0.002043 
-0.207078 -0.263003 -0.001766 
0.641095 -0.280802 -0.004849 
0.056869 -0.291339 -0.003798 
-0.198387 -0.286870 -0.008887 
0.615184 -0.310052 -0.010879 
-0.186824 -0.320785 -0.000092 
0.073192 -0.368286 0.005689 
-0.169434 -0.360315 -0.001420 
0.078743 -0.391098 -0.002732 
0.083389 -0.409494 -0.004732 
-0.150157 -0.399655 -0.000587 
-0.131281 -0.441296 -0.002632 
0.100119 -0.469701 -0.003459 
-0.112674 -0.491251 -0.002115 
-0.096445 -0.523159 -0.007907 
0.119979 -0.548280 -0.003351 
-0.091797 -0.539754 -0.002481 
0.122754 -0.567409 -0.007192 
-0.084252 -0.557651 0.010456 
0.129789 -0.592203 -0.003991 
-0.072443 -0.589651 -0.002103 
0.132091 -0.623259 -0.007953 
-0.052377 -0.638281 -0.002519 
0.143851 -0.660328 -0.005640 
-0.033809 -0.688007 -0.001839 
0.156733 -0.709090 -0.001346 
0.161580 -0.739264 0.000033 
-0.011716 -0.732746 0.007577 
0.163947 -0.761160 -0.004406 
0.001990 -0.759156 -0.007911 
0.006702 -0.775404 -0.002384 
0.171047 -0.788061 -0.005202 
0.019020 -0.807490 0.000471 
0.180970 -0.818143 0.000672 
0.183097 -0.840067 -0.004041 
0.193881 -0.870997 0.002711 
0.047433 -0.870476 0.008322 
0.185947 -0.907551 -0.009179 
0.066105 -0.911012 0.002272 
0.201365 -0.928493 0.005252 
0.185544 -0.939967 -0.004362 
0.080246 -0.935610 0.000923 
0.173634 -0.956113 -0.002189 
0.149829 -0.956799 -0.004922 
0.096493 -0.942574 -0.008555 
0.087020 -0.950247 0.009986 
0.120752 -0.963663 0.000929 
0.145300 0.937229 -0.013112 
0.117984 0.944196 -0.011615 
0.169934 0.902697 -0.012587 
0.127532 0.926564 -0.017468 
0.101715 0.925880 -0.013620 
0.143223 0.910944 -0.018788 
0.109134 0.907484 -0.019530 
0.086773 0.908999 -0.012128 
0.142383 0.892278 -0.020401 
0.105717 0.890391 -0.020587 
0.077179 0.885733 -0.012973 
0.168642 0.865067 -0.014075 
0.151348 0.873462 -0.019508 
0.132435 0.872803 -0.022177 
0.113278 0.872180 -0.022456 
0.063511 0.864505 -0.013296 
0.151138 0.853910 -0.019141 
0.132120 0.853306 -0.022224 
0.112798 0.852771 -0.022979 
0.094540 0.860875 -0.021654 
0.078590 0.857517 -0.019896 
0.057382 0.847104 -0.015415 
0.150715 0.834096 -0.018776 
0.131802 0.833714 -0.022270 
0.112579 0.833412 -0.023345 
0.067599 0.831486 -0.020526 
0.039142 0.827596 -0.008761 
0.167249 0.825345 -0.011797 
0.149733 0.814477 -0.018631 
0.131233 0.814397 -0.022260 
0.112239 0.814168 -0.023426 
0.093419 0.823300 -0.023292 
0.065309 0.812683 -0.020977 
0.039319 0.807620 -0.013889 
0.155618 0.795673 -0.014958 
0.130746 0.786224 -0.021399 
0.112129 0.794814 -0.023185 
0.092816 0.794327 -0.023446 
0.073650 0.793778 -0.022781 
0.055473 0.782491 -0.021530 
0.028807 0.789490 -0.011871 
0.152117 0.778827 -0.015074 
0.112306 0.775112 -0.022745 
0.092758 0.774625 -0.023446 
0.073484 0.774146 -0.023205 
0.040305 0.779621 -0.018949 
0.021555 0.767190 -0.013168 
0.150427 0.760027 -0.013230 
0.131590 0.756254 -0.019308 
0.112330 0.755186 -0.022418 
0.092761 0.754923 -0.023490 
0.073364 0.754660 -0.023496 
0.054515 0.754075 -0.022705 
0.036387 0.742900 -0.021472 
0.021207 0.739951 -0.019013 
0.147739 0.737111 -0.011832 
0.130883 0.735726 -0.018756 
0.112141 0.735333 -0.022309 
0.092710 0.735276 -0.023511 
0.073178 0.735145 -0.023646 
0.054052 0.734712 -0.023194 
-0.004322 0.726341 -0.008461 
0.151441 0.717436 -0.005814 
0.130065 0.715755 -0.018643 
0.111789 0.715664 -0.022296 
0.092561 0.715664 -0.023511 
0.073059 0.715560 -0.023728 
0.053721 0.715292 -0.023496 
0.034638 0.705016 -0.022959 
0.016754 0.703508 -0.021505 
-0.002953 0.709025 -0.015556 
0.136395 0.696396 -0.015069 
0.111191 0.696311 -0.022260 
0.092338 0.696186 -0.023452 
0.072999 0.695975 -0.023728 
0.053494 0.695777 -0.023646 
-0.017384 0.688332 -0.013426 
0.118544 0.677737 -0.020343 
0.092295 0.676729 -0.023185 
0.073007 0.676335 -0.023646 
0.053393 0.676174 -0.023728 
0.034037 0.675924 -0.023496 
0.014962 0.665655 -0.022956 
-0.001461 0.683097 -0.020095 
-0.022109 0.670263 -0.015456 
0.130488 0.660919 -0.015052 
0.110663 0.658574 -0.020722 
0.092459 0.657008 -0.022745 
0.073044 0.656615 -0.023555 
0.053357 0.656540 -0.023754 
0.033810 0.656409 -0.023646 
-0.027065 0.653251 -0.015807 
0.128231 0.641852 -0.013027 
0.111096 0.638117 -0.019322 
0.092481 0.637100 -0.022436 
0.073021 0.636887 -0.023516 
0.053339 0.636874 -0.023754 
0.033709 0.636806 -0.023728 
0.014368 0.636600 -0.023457 
-0.003872 0.645548 -0.022238 
-0.013779 0.625767 -0.021159 
-0.039270 0.630617 -0.013866 
0.125830 0.618752 -0.012195 
0.092113 0.617351 -0.022351 
0.072877 0.617244 -0.023511 
0.053321 0.617208 -0.023754 
0.033673 0.617172 -0.023754 
0.014096 0.617078 -0.023555 
-0.023188 0.605448 -0.021465 
0.122544 0.589820 -0.012306 
0.109687 0.608037 -0.018979 
0.091466 0.597985 -0.022276 
0.072654 0.597766 -0.023452 
0.053297 0.597574 -0.023728 
0.033655 0.597506 -0.023754 
0.014002 0.597412 -0.023646 
-0.005237 0.597003 -0.023200 
-0.038061 0.603034 -0.018690 
-0.048393 0.584795 -0.015891 
0.105561 0.572020 -0.018526 
0.090723 0.569764 -0.021388 
0.072611 0.578309 -0.023185 
0.053323 0.577916 -0.023646 
0.033655 0.577822 -0.023754 
0.014012 0.577754 -0.023728 
-0.005358 0.577549 -0.023457 
-0.024249 0.577137 -0.022395 
-0.059197 0.571458 -0.013802 
0.118959 0.552121 -0.006240 
0.072705 0.558607 -0.022763 
0.053345 0.558195 -0.023555 
0.033655 0.558138 -0.023754 
0.013989 0.558120 -0.023754 
-0.005588 0.558026 -0.023555 
-0.024770 0.557570 -0.022781 
-0.042947 0.546283 -0.021530 
0.108084 0.543842 -0.013345 
0.090958 0.539928 -0.019482 
0.072477 0.538785 -0.022459 
0.053206 0.538522 -0.023516 
0.033637 0.538472 -0.023754 
0.013971 0.538454 -0.023754 
-0.005682 0.538360 -0.023646 
-0.024936 0.537938 -0.023205 
-0.058116 0.543413 -0.018949 
-0.076865 0.530982 -0.013168 
0.097136 0.520697 -0.015907 
0.071821 0.519288 -0.022289 
0.052970 0.519030 -0.023452 
0.033613 0.518838 -0.023728 
0.013971 0.518770 -0.023754 
-0.005672 0.518702 -0.023728 
-0.025056 0.518452 -0.023496 
-0.043905 0.517868 -0.022705 
-0.081767 0.512226 -0.015481 
0.106254 0.503962 -0.008258 
0.079078 0.500854 -0.020376 
0.033639 0.499180 -0.023646 
0.013971 0.499086 -0.023754 
-0.005695 0.499068 -0.023754 
-0.025242 0.498938 -0.023646 
-0.044368 0.498505 -0.023194 
-0.062034 0.506691 -0.021472 
-0.096120 0.491492 -0.013426 
0.090593 0.484488 -0.015177 
0.061993 0.490637 -0.022060 
0.052998 0.479932 -0.022794 
0.033661 0.479459 -0.023555 
0.013971 0.479402 -0.023754 
-0.005713 0.479402 -0.023754 
-0.025342 0.479334 -0.023728 
-0.044698 0.479084 -0.023496 
-0.063780 0.468809 -0.022969 
-0.080196 0.486257 -0.020095 
-0.100845 0.473423 -0.015456 
0.087955 0.466129 -0.014052 
0.052744 0.460137 -0.022457 
0.033522 0.459786 -0.023516 
0.013953 0.459736 -0.023754 
-0.005713 0.459718 -0.023754 
-0.025379 0.459700 -0.023754 
-0.044926 0.459570 -0.023646 
-0.105998 0.456396 -0.015979 
0.082918 0.434237 -0.012099 
0.070399 0.451554 -0.019254 
0.052074 0.440607 -0.022253 
0.033286 0.440294 -0.023452 
0.013929 0.440102 -0.023728 
-0.005713 0.440034 -0.023754 
-0.025410 0.440021 -0.023780 
-0.045123 0.439907 -0.023921 
-0.064661 0.439602 -0.023981 
-0.082951 0.448568 -0.022697 
-0.104037 0.427982 -0.021982 
-0.119416 0.433946 -0.014603 
0.065900 0.414732 -0.018501 
0.051298 0.412381 -0.021456 
0.033237 0.420853 -0.023200 
0.013955 0.420444 -0.023646 
-0.005752 0.420311 -0.023863 
-0.025618 0.420202 -0.024282 
-0.045653 0.420020 -0.024987 
-0.065936 0.419377 -0.025799 
-0.086465 0.418875 -0.025727 
0.077828 0.394427 -0.006663 
0.033369 0.401179 -0.022781 
0.013953 0.400684 -0.023754 
-0.005938 0.400441 -0.024621 
-0.026304 0.399870 -0.026075 
-0.047073 0.399791 -0.027965 
-0.068138 0.396867 -0.030046 
-0.091773 0.398596 -0.029526 
-0.117520 0.404091 -0.024092 
0.068191 0.387015 -0.013851 
0.051676 0.382661 -0.019536 
0.033315 0.381287 -0.022672 
0.013860 0.380814 -0.024549 
-0.006285 0.380091 -0.026864 
-0.027958 0.377733 -0.030323 
-0.125479 0.381532 -0.027964 
-0.141478 0.385916 -0.018951 
0.032901 0.361460 -0.023268 
0.013808 0.360972 -0.026604 
-0.005352 0.359713 -0.030341 
-0.155702 0.360724 -0.018967 
0.065160 0.336533 -0.007154 
0.050101 0.352474 -0.019257 
0.013737 0.341420 -0.029385 
0.053740 0.324198 -0.016105 
0.031816 0.332598 -0.025648 
0.634391 0.295856 -0.011294 
0.595721 0.288074 -0.013627 
0.050293 0.306834 -0.017190 
0.030824 0.303577 -0.026894 
0.628765 0.273085 -0.015380 
0.600811 0.275048 -0.018980 
0.576177 0.269045 -0.013169 
0.047717 0.287782 -0.016906 
0.029437 0.280183 -0.026320 
-0.191104 0.279583 -0.019275 
0.597374 0.259343 -0.020597 
0.026102 0.257282 -0.025812 
-0.198394 0.258895 -0.019603 
0.627549 0.255534 -0.014379 
0.595268 0.242310 -0.021558 
0.570588 0.245281 -0.018929 
0.553147 0.233186 -0.016098 
0.044024 0.255376 -0.014367 
-0.206955 0.238905 -0.019629 
0.616681 0.237423 -0.018654 
0.594027 0.223839 -0.021672 
0.558926 0.216382 -0.022929 
0.533477 0.212482 -0.016597 
0.031455 0.228801 -0.018533 
0.013161 0.235683 -0.029174 
-0.216107 0.218539 -0.019251 
0.617122 0.209475 -0.014007 
0.602050 0.205010 -0.020322 
0.584403 0.192221 -0.026134 
0.564214 0.197212 -0.028087 
0.533237 0.195563 -0.025362 
0.513154 0.194510 -0.014079 
0.027958 0.210361 -0.017080 
0.011823 0.205620 -0.027021 
-0.226360 0.197778 -0.019683 
0.612878 0.177156 -0.014609 
0.600258 0.174860 -0.022486 
0.507218 0.179388 -0.020780 
0.017417 0.186185 -0.021479 
-0.239330 0.175809 -0.017922 
0.495480 0.161519 -0.020735 
0.015826 0.155184 -0.022400 
-0.257692 0.150312 -0.020270 
0.606553 0.137952 -0.015855 
0.596204 0.138768 -0.025888 
0.475290 0.135294 -0.018544 
0.009580 0.144910 -0.029637 
-0.278131 0.130376 -0.020155 
0.459529 0.113742 -0.021954 
0.023877 0.125280 -0.022615 
-0.298248 0.117240 -0.021122 
-0.319826 0.108883 -0.022101 
-0.340902 0.105443 -0.023233 
-0.360915 0.104677 -0.023471 
-0.372148 0.104061 -0.032787 
-0.399629 0.104870 -0.023492 
-0.419114 0.104913 -0.023685 
-0.438761 0.104922 -0.023752 
-0.458445 0.104922 -0.023752 
-0.478129 0.104922 -0.023752 
-0.497813 0.104922 -0.023752 
-0.517497 0.104922 -0.023752 
-0.537143 0.104913 -0.023820 
-0.556628 0.104870 -0.024013 
-0.584146 0.103948 -0.014763 
-0.595405 0.104105 -0.024187 
-0.615126 0.103269 -0.024444 
-0.640996 0.100795 -0.017314 
-0.645757 0.099112 -0.034223 
0.598202 0.110092 -0.020599 
0.444237 0.098401 -0.006887 
0.049075 0.088547 -0.032665 
0.027569 0.106613 -0.032884 
-0.673746 0.094596 -0.022703 
-0.711480 0.086589 -0.014111 
0.598425 0.086905 -0.020149 
0.427736 0.081533 -0.018955 
0.290311 0.058327 -0.024626 
0.223503 0.062673 -0.014327 
0.211970 0.064364 -0.023767 
0.192354 0.064415 -0.023749 
0.172672 0.064519 -0.023659 
0.152844 0.064683 -0.023531 
0.132818 0.065162 -0.023497 
0.112738 0.066526 -0.023733 
0.092647 0.069960 -0.024641 
0.071941 0.076851 -0.027305 
-0.809468 0.067759 -0.034969 
-0.826339 0.061852 -0.036985 
0.600256 0.066395 -0.020524 
0.408063 0.066207 -0.021445 
0.388197 0.055310 -0.022926 
0.368322 0.049512 -0.023583 
0.348505 0.048124 -0.023897 
0.328813 0.050293 -0.024401 
-0.849642 0.051229 -0.026357 
0.602328 0.046424 -0.022073 
0.620336 0.007681 -0.013938 
0.603037 0.026906 -0.024107 
0.601428 0.008567 -0.025975 
0.615134 -0.009471 -0.017160 
0.590864 0.001028 -0.031163 
0.604489 -0.025674 -0.020829 
0.600664 -0.048280 -0.019980 
0.389079 -0.062985 -0.025348 
0.368463 -0.057091 -0.023860 
0.348154 -0.055724 -0.022333 
0.325750 -0.057464 -0.018625 
-0.871655 -0.042014 -0.022091 
0.410200 -0.073957 -0.026184 
0.300327 -0.062275 -0.023688 
0.256188 -0.068547 -0.025824 
0.209271 -0.070187 -0.024254 
0.189679 -0.070254 -0.023846 
0.169985 -0.070293 -0.023752 
0.150301 -0.070293 -0.023752 
0.130604 -0.070428 -0.023752 
0.110930 -0.071243 -0.023852 
0.091412 -0.073847 -0.024062 
0.072219 -0.079374 -0.023754 
-0.817099 -0.071481 -0.031563 
-0.853810 -0.054128 -0.032860 
0.596464 -0.091361 -0.020624 
0.429577 -0.088531 -0.026788 
0.053515 -0.090100 -0.022262 
-0.693512 -0.096466 -0.024779 
-0.713386 -0.093112 -0.023578 
-0.732943 -0.090536 -0.022931 
-0.758703 -0.087093 -0.029911 
-0.771233 -0.084735 -0.022127 
-0.791566 -0.079489 -0.024222 
0.608539 -0.135475 -0.008447 
0.597407 -0.111945 -0.022943 
0.036337 -0.109565 -0.018367 
-0.316871 -0.116202 -0.030331 
-0.339843 -0.112377 -0.025143 
-0.360641 -0.110589 -0.023897 
-0.380600 -0.110251 -0.023948 
-0.419313 -0.110581 -0.024013 
-0.438798 -0.110625 -0.023820 
-0.458445 -0.110633 -0.023752 
-0.478129 -0.110633 -0.023752 
-0.497813 -0.110633 -0.023752 
-0.517459 -0.110625 -0.023685 
-0.536945 -0.110581 -0.023492 
-0.575590 -0.110141 -0.023437 
-0.595064 -0.109732 -0.023212 
-0.624620 -0.107741 -0.012744 
-0.652085 -0.104723 -0.023874 
-0.672850 -0.100733 -0.025095 
0.458394 -0.122156 -0.019789 
0.024435 -0.134261 -0.021408 
-0.288346 -0.128781 -0.025230 
0.603837 -0.138722 -0.021533 
0.599111 -0.150162 -0.026019 
0.476241 -0.145247 -0.019644 
-0.265726 -0.147981 -0.020908 
0.613104 -0.169107 -0.014128 
0.598671 -0.174507 -0.025557 
0.494009 -0.169097 -0.019631 
0.023363 -0.160655 -0.017985 
0.013944 -0.169119 -0.026654 
-0.249352 -0.168169 -0.021737 
0.611398 -0.194570 -0.018818 
0.588310 -0.194833 -0.027971 
0.516213 -0.185857 -0.027798 
0.507497 -0.192465 -0.009319 
0.027022 -0.189891 -0.016182 
0.012776 -0.189481 -0.027529 
-0.234115 -0.188815 -0.025065 
0.623909 -0.219619 -0.014020 
0.599329 -0.213955 -0.024263 
0.575150 -0.210634 -0.027992 
0.553542 -0.207923 -0.028543 
0.530971 -0.204232 -0.025140 
0.521046 -0.209857 -0.009608 
0.033532 -0.217986 -0.015314 
0.012838 -0.209250 -0.028655 
-0.230285 -0.206385 -0.015198 
0.596621 -0.239816 -0.023806 
0.569270 -0.229333 -0.025194 
0.549957 -0.228013 -0.022123 
0.534077 -0.224197 -0.014467 
0.029524 -0.228242 -0.020978 
0.013230 -0.228945 -0.029601 
-0.215898 -0.229910 -0.019151 
0.633277 -0.247890 -0.010384 
0.617367 -0.239327 -0.019472 
0.586174 -0.249227 -0.023597 
0.567728 -0.249226 -0.021355 
0.552708 -0.249025 -0.013739 
0.043809 -0.247517 -0.010257 
0.031091 -0.248403 -0.022276 
0.013573 -0.248759 -0.030645 
-0.212915 -0.245485 -0.009196 
0.628125 -0.268614 -0.016386 
0.594968 -0.268448 -0.022068 
0.568564 -0.276632 -0.011614 
0.049171 -0.269501 -0.007458 
0.031841 -0.268431 -0.024493 
0.013669 -0.268561 -0.032035 
-0.196444 -0.272360 -0.021681 
0.635705 -0.294029 -0.014094 
0.612117 -0.286459 -0.020382 
0.578668 -0.277456 -0.017787 
0.053147 -0.296755 -0.014175 
0.032236 -0.288208 -0.026627 
0.596642 -0.300460 -0.014200 
0.048978 -0.307238 -0.019831 
0.031826 -0.308727 -0.028018 
-0.189803 -0.300312 -0.018011 
0.063394 -0.326232 -0.009374 
0.050060 -0.328314 -0.020740 
0.029805 -0.332499 -0.028446 
-0.176588 -0.329856 -0.018770 
0.051663 -0.349533 -0.020860 
0.045477 -0.361617 -0.023234 
0.016708 -0.353062 -0.029780 
-0.174204 -0.345714 -0.010495 
0.066189 -0.357998 -0.012392 
0.036142 -0.370492 -0.025045 
-0.000943 -0.372125 -0.030102 
-0.157633 -0.369511 -0.017893 
0.060644 -0.387310 -0.018482 
0.028034 -0.381471 -0.025617 
-0.019170 -0.391108 -0.029477 
-0.142057 -0.376825 -0.027342 
-0.155052 -0.384915 -0.009273 
0.061313 -0.406062 -0.019619 
0.025955 -0.398700 -0.024916 
0.008831 -0.401037 -0.025827 
-0.009456 -0.410852 -0.026055 
-0.034383 -0.407414 -0.028457 
-0.055793 -0.405713 -0.030232 
-0.076769 -0.405928 -0.030940 
-0.097536 -0.405402 -0.030344 
-0.120327 -0.402932 -0.026907 
-0.137508 -0.408250 -0.015565 
0.085184 -0.424820 -0.008904 
0.070957 -0.425612 -0.018273 
0.053122 -0.426038 -0.022424 
0.034066 -0.426459 -0.023745 
0.014969 -0.426930 -0.024207 
-0.012482 -0.427514 -0.024962 
-0.040859 -0.426274 -0.026380 
-0.060903 -0.425931 -0.027059 
-0.081077 -0.425792 -0.027050 
-0.101339 -0.425476 -0.025559 
-0.119770 -0.426523 -0.020425 
-0.135667 -0.424465 -0.008732 
0.087003 -0.446196 -0.012234 
0.071565 -0.445620 -0.019796 
0.053139 -0.445696 -0.022890 
0.033777 -0.445867 -0.023704 
0.014383 -0.446060 -0.023886 
-0.004855 -0.446136 -0.024109 
-0.024198 -0.445966 -0.024422 
-0.043807 -0.445774 -0.024726 
-0.063585 -0.445693 -0.024887 
-0.083383 -0.445691 -0.024381 
-0.102472 -0.445986 -0.021983 
-0.118795 -0.446330 -0.015457 
0.071987 -0.465153 -0.021138 
0.053204 -0.465348 -0.023237 
0.033673 -0.465447 -0.023739 
0.014056 -0.465484 -0.023769 
-0.015351 -0.465466 -0.023876 
-0.044838 -0.465429 -0.023982 
-0.064540 -0.465429 -0.023908 
-0.083977 -0.465652 -0.022923 
-0.102235 -0.466359 -0.019159 
-0.117304 -0.467583 -0.009789 
0.088683 -0.474582 -0.016417 
0.072379 -0.484770 -0.021903 
0.053302 -0.485056 -0.023449 
0.026633 -0.484241 -0.023755 
-0.017652 -0.484238 -0.023761 
-0.045081 -0.485113 -0.023754 
-0.064729 -0.485209 -0.023477 
-0.083719 -0.485705 -0.021854 
-0.100563 -0.487018 -0.016772 
0.104175 -0.495489 -0.008246 
0.090732 -0.504069 -0.018338 
0.072694 -0.504625 -0.022403 
0.053339 -0.504784 -0.023579 
0.033655 -0.504797 -0.023754 
-0.005713 -0.504797 -0.023754 
-0.025397 -0.504797 -0.023754 
-0.045081 -0.504810 -0.023728 
-0.064539 -0.505070 -0.023060 
-0.082964 -0.505908 -0.020327 
-0.098511 -0.507685 -0.012645 
0.106867 -0.524594 -0.012196 
0.091294 -0.524286 -0.019794 
0.072805 -0.524413 -0.022890 
0.053339 -0.524481 -0.023678 
-0.020476 -0.522018 -0.023754 
-0.045045 -0.524538 -0.023594 
-0.064142 -0.524916 -0.022394 
0.091671 -0.543889 -0.021138 
0.072887 -0.544084 -0.023237 
0.053339 -0.544165 -0.023739 
0.033655 -0.534323 -0.023754 
0.004129 -0.544165 -0.023754 
-0.025397 -0.544165 -0.023739 
-0.044946 -0.544285 -0.023280 
-0.063639 -0.544674 -0.021161 
-0.080412 -0.535436 -0.016699 
0.108396 -0.553270 -0.016369 
0.092059 -0.563493 -0.021844 
0.072986 -0.563792 -0.023434 
0.053339 -0.563849 -0.023754 
0.003258 -0.560518 -0.023753 
-0.025397 -0.563862 -0.023670 
-0.044770 -0.564111 -0.022723 
-0.062912 -0.564818 -0.019051 
-0.077704 -0.565993 -0.009759 
0.110346 -0.582690 -0.018043 
0.092371 -0.583340 -0.022203 
0.073023 -0.583520 -0.023518 
0.043497 -0.583533 -0.023754 
0.004129 -0.578607 -0.023754 
-0.005713 -0.583533 -0.023754 
-0.025361 -0.583629 -0.023477 
-0.044351 -0.584125 -0.021854 
-0.061097 -0.585438 -0.016772 
0.126039 -0.602675 -0.011305 
0.110817 -0.602949 -0.019088 
0.092458 -0.603160 -0.022598 
0.073023 -0.603217 -0.023587 
0.048415 -0.603214 -0.023754 
0.017661 -0.604445 -0.023754 
-0.005713 -0.603230 -0.023728 
-0.025171 -0.603490 -0.023060 
-0.043573 -0.604327 -0.020327 
-0.058914 -0.606117 -0.012649 
0.111066 -0.622641 -0.020246 
0.092476 -0.622833 -0.022968 
0.073023 -0.622901 -0.023678 
0.043497 -0.622901 -0.023754 
0.013971 -0.622901 -0.023754 
-0.005677 -0.622958 -0.023594 
-0.024774 -0.623336 -0.022394 
-0.041038 -0.633861 -0.016700 
-0.056820 -0.621644 -0.007930 
0.133468 -0.641993 -0.011384 
0.120098 -0.651267 -0.019355 
0.092567 -0.642491 -0.023254 
0.073023 -0.642585 -0.023739 
0.045956 -0.640123 -0.023754 
0.013971 -0.642585 -0.023739 
-0.005578 -0.642705 -0.023280 
-0.024271 -0.643094 -0.021161 
0.111784 -0.661800 -0.021865 
0.092670 -0.662212 -0.023434 
0.073023 -0.662269 -0.023754 
0.033655 -0.667187 -0.023754 
0.013971 -0.662282 -0.023670 
-0.005402 -0.662531 -0.022723 
-0.023569 -0.663238 -0.019051 
-0.038558 -0.664442 -0.009769 
0.145486 -0.678172 -0.008559 
0.130296 -0.680689 -0.017985 
0.112091 -0.681677 -0.022153 
0.092707 -0.681940 -0.023503 
0.058259 -0.681952 -0.023754 
0.033655 -0.681953 -0.023754 
0.014007 -0.682049 -0.023477 
-0.004983 -0.682558 -0.021843 
-0.021800 -0.683896 -0.016687 
0.146930 -0.709760 -0.011709 
0.130860 -0.700948 -0.018729 
0.112251 -0.701504 -0.022362 
0.092707 -0.701637 -0.023526 
0.073023 -0.691795 -0.023754 
0.053339 -0.706553 -0.023754 
0.033655 -0.701650 -0.023728 
0.014197 -0.701949 -0.023027 
-0.004168 -0.702891 -0.020115 
-0.019592 -0.704597 -0.012100 
0.131292 -0.720936 -0.019202 
0.112354 -0.721263 -0.022594 
0.092707 -0.721321 -0.023587 
0.073023 -0.721321 -0.023754 
0.053339 -0.721321 -0.023754 
0.033691 -0.721417 -0.023562 
0.014681 -0.721970 -0.022162 
-0.002253 -0.723371 -0.017561 
-0.017241 -0.719871 -0.006418 
0.149088 -0.740413 -0.013024 
0.131643 -0.740842 -0.020014 
0.112391 -0.740992 -0.022936 
0.092707 -0.741005 -0.023678 
0.073023 -0.741005 -0.023754 
0.053339 -0.741018 -0.023728 
0.033881 -0.741277 -0.023114 
0.015459 -0.742118 -0.020494 
-0.000123 -0.743831 -0.012887 
0.149900 -0.760473 -0.015441 
0.131822 -0.760595 -0.021172 
0.112391 -0.760689 -0.023253 
0.092707 -0.760689 -0.023739 
0.073023 -0.760689 -0.023754 
0.053375 -0.760746 -0.023594 
0.034278 -0.761085 -0.022372 
0.018030 -0.771160 -0.016566 
0.150505 -0.779986 -0.017457 
0.131935 -0.780279 -0.021993 
0.112391 -0.780373 -0.023466 
0.092707 -0.780373 -0.023754 
0.073023 -0.780373 -0.023739 
0.053474 -0.780453 -0.023215 
0.034779 -0.780627 -0.020999 
0.167170 -0.798771 -0.011040 
0.150976 -0.799711 -0.018824 
0.132038 -0.799999 -0.022503 
0.112391 -0.800057 -0.023587 
0.092707 -0.800057 -0.023754 
0.073023 -0.800057 -0.023618 
0.053617 -0.800124 -0.022508 
0.035426 -0.800099 -0.018424 
0.020855 -0.798910 -0.009537 
0.168691 -0.819196 -0.012670 
0.151333 -0.819596 -0.019935 
0.132075 -0.819728 -0.022936 
0.112391 -0.819741 -0.023678 
0.092707 -0.819741 -0.023739 
0.073038 -0.819780 -0.023303 
0.053933 -0.819972 -0.021200 
0.036751 -0.820154 -0.014937 
0.176764 -0.859249 -0.012897 
0.169279 -0.839411 -0.015291 
0.151333 -0.839344 -0.021146 
0.131990 -0.839370 -0.023253 
0.112373 -0.839406 -0.023739 
0.092707 -0.839438 -0.023670 
0.073194 -0.839656 -0.022756 
0.054702 -0.840389 -0.019128 
0.039237 -0.842027 -0.010104 
0.131801 -0.858848 -0.023391 
0.112349 -0.859041 -0.023728 
0.092743 -0.859205 -0.023477 
0.073687 -0.859718 -0.021877 
0.056701 -0.861096 -0.016778 
0.041956 -0.858012 -0.005195 
0.189405 -0.889059 -0.006978 
0.166233 -0.885181 -0.018928 
0.150476 -0.868062 -0.022018 
0.131600 -0.878299 -0.023144 
0.112199 -0.878657 -0.023559 
0.092848 -0.879011 -0.022969 
0.074480 -0.879896 -0.019995 
0.058959 -0.881581 -0.011925 
0.150130 -0.896620 -0.021007 
0.130927 -0.897840 -0.022512 
0.092917 -0.898597 -0.021534 
0.076947 -0.908657 -0.013465 
0.061128 -0.896518 -0.005728 
0.170382 -0.914574 -0.014634 
0.148177 -0.917041 -0.018763 
0.119958 -0.907356 -0.021965 
0.101529 -0.917095 -0.019484 
0.162692 -0.937606 -0.011608 
0.140619 -0.935841 -0.015627 
0.116133 -0.932849 -0.017375 
0.124908 -0.949534 -0.010539 
-0.054201 0.379912 -0.033158 
-0.077329 0.378475 -0.034867 
-0.012782 0.348586 -0.034194 
-0.041136 0.362734 -0.035915 
-0.100165 0.376550 -0.034346 
-0.113882 0.358859 -0.036708 
-0.061349 0.360357 -0.038378 
-0.081381 0.349655 -0.040532 
-0.136075 0.356617 -0.031990 
0.013252 0.322014 -0.032117 
-0.023787 0.341101 -0.037896 
-0.043666 0.341793 -0.040371 
-0.063360 0.341120 -0.041678 
-0.098363 0.347659 -0.040370 
-0.111014 0.330252 -0.041033 
-0.150421 0.338693 -0.031202 
-0.006078 0.321891 -0.037184 
-0.025592 0.322244 -0.040812 
-0.044963 0.322179 -0.042432 
-0.064301 0.321758 -0.043033 
-0.083576 0.321464 -0.042970 
-0.128016 0.327932 -0.039659 
-0.159039 0.316601 -0.032642 
0.011544 0.302189 -0.033703 
-0.008257 0.303414 -0.038908 
-0.045317 0.302728 -0.042895 
-0.064696 0.302285 -0.043315 
-0.084235 0.302124 -0.043354 
-0.103687 0.301910 -0.043092 
-0.131233 0.310423 -0.040547 
-0.141579 0.290548 -0.041059 
-0.157500 0.288524 -0.038296 
-0.173596 0.308835 -0.025776 
0.006792 0.283681 -0.034896 
-0.019016 0.295878 -0.040590 
-0.026001 0.284492 -0.041185 
-0.045094 0.283013 -0.042594 
-0.064744 0.282619 -0.043239 
-0.084431 0.282544 -0.043438 
-0.104032 0.282414 -0.043330 
-0.123356 0.282021 -0.042869 
-0.176271 0.280552 -0.031377 
-0.003595 0.267175 -0.036476 
-0.024931 0.264032 -0.040216 
-0.044977 0.263086 -0.042336 
-0.064752 0.262891 -0.043200 
-0.084449 0.262878 -0.043438 
-0.104091 0.262810 -0.043412 
-0.123556 0.262605 -0.043140 
-0.142737 0.262285 -0.042066 
-0.161770 0.261411 -0.038960 
-0.181054 0.257700 -0.032588 
-0.005272 0.244615 -0.035629 
-0.025197 0.243572 -0.039793 
-0.045042 0.243233 -0.042236 
