1.679379 0.044194 1.000000 
1.060660 -0.441942 1.000000 
0.972272 -0.397748 1.000000 
0.883883 -0.441942 1.000000 
0.972272 -0.486136 1.000000 
1.237437 -0.353553 1.000000 
1.149049 -0.309359 1.000000 
1.060660 -0.353553 1.000000 
1.149048 -0.397748 1.000000 
1.060660 -0.265165 1.000000 
0.972272 -0.220971 1.000000 
0.883883 -0.265165 1.000000 
0.972272 -0.309359 1.000000 
-0.353553 0.972272 1.000000 
-0.441942 1.016466 1.000000 
-0.530330 0.972272 1.000000 
-0.441942 0.928078 1.000000 
-0.176777 1.060660 1.000000 
-0.265165 1.104854 1.000000 
-0.353553 1.060660 1.000000 
-0.265165 1.016466 1.000000 
-0.353553 1.149049 1.000000 
-0.441942 1.193243 1.000000 
-0.530330 1.149049 1.000000 
-0.441942 1.104854 1.000000 
0.353553 0.618718 1.000000 
0.265165 0.662913 1.000000 
0.176777 0.618718 1.000000 
0.265165 0.574524 1.000000 
0.530330 0.707107 1.000000 
0.441942 0.751301 1.000000 
0.353553 0.707107 1.000000 
0.441942 0.662913 1.000000 
0.353553 0.795495 1.000000 
0.265165 0.839689 1.000000 
0.176777 0.795495 1.000000 
0.265165 0.751301 1.000000 
-0.353553 0.265165 1.000000 
-0.441942 0.309359 1.000000 
-0.530330 0.265165 1.000000 
-0.441942 0.220971 1.000000 
-0.176777 0.353553 1.000000 
-0.265165 0.397748 1.000000 
-0.353553 0.353553 1.000000 
-0.265165 0.309359 1.000000 
-0.353553 0.441942 1.000000 
-0.441942 0.486136 1.000000 
-0.530330 0.441942 1.000000 
-0.441942 0.397748 1.000000 
-0.883883 -0.176777 -1.000000 
-0.795495 -0.220971 -1.000000 
-0.883883 -0.265165 -1.000000 
-0.972272 -0.220971 -1.000000 
-0.707107 -0.088388 -1.000000 
-0.618718 -0.132583 -1.000000 
-0.707107 -0.176777 -1.000000 
-0.795495 -0.132583 -1.000000 
-0.530330 -0.176777 -1.000000 
-0.441942 -0.220971 -1.000000 
-0.530330 -0.265165 -1.000000 
-0.618718 -0.220971 -1.000000 
-1.590990 0.176777 -1.000000 
-1.502602 0.132583 -1.000000 
-1.590990 0.088388 -1.000000 
-1.679379 0.132583 -1.000000 
-1.414214 0.265165 -1.000000 
-1.325825 0.220971 -1.000000 
-1.414214 0.176777 -1.000000 
-1.502602 0.220971 -1.000000 
-1.237437 0.176777 -1.000000 
-1.149049 0.132583 -1.000000 
-1.237437 0.088388 -1.000000 
-1.325825 0.132583 -1.000000 
-2.298097 -0.176777 -1.000000 
-2.209709 -0.220971 -1.000000 
-2.298097 -0.265165 -1.000000 
-2.386485 -0.220971 -1.000000 
-2.121320 -0.088388 -1.000000 
-2.032932 -0.132582 -1.000000 
-2.121320 -0.176777 -1.000000 
-2.209709 -0.132583 -1.000000 
-1.944544 -0.176777 -1.000000 
-1.856155 -0.220971 -1.000000 
-1.944544 -0.265165 -1.000000 
-2.032932 -0.220971 -1.000000 
0.530330 0.530330 -1.000000 
0.618718 0.486136 -1.000000 
0.530330 0.441942 -1.000000 
0.441942 0.486136 -1.000000 
0.707107 0.618718 -1.000000 
0.795495 0.574524 -1.000000 
0.707107 0.530330 -1.000000 
0.618718 0.574524 -1.000000 
0.883883 0.530330 -1.000000 
0.972272 0.486136 -1.000000 
0.883883 0.441942 -1.000000 
0.795495 0.486136 -1.000000 
-0.176777 0.883883 -1.000000 
-0.088388 0.839689 -1.000000 
-0.176777 0.795495 -1.000000 
-0.265165 0.839689 -1.000000 
-0.000000 0.972272 -1.000000 
0.088388 0.928078 -1.000000 
-0.000000 0.883883 -1.000000 
-0.088388 0.928078 -1.000000 
0.176777 0.883883 -1.000000 
0.265165 0.839689 -1.000000 
0.176777 0.795495 -1.000000 
0.088388 0.839689 -1.000000 
-0.883883 0.530330 -1.000000 
-0.795495 0.486136 -1.000000 
-0.883883 0.441942 -1.000000 
-0.972272 0.486136 -1.000000 
-0.707107 0.618718 -1.000000 
-0.618718 0.574524 -1.000000 
-0.707107 0.530330 -1.000000 
-0.795495 0.574524 -1.000000 
-0.530330 0.530330 -1.000000 
-0.441942 0.486136 -1.000000 
-0.530330 0.441942 -1.000000 
-0.618718 0.486136 -1.000000 
1.944544 -0.176777 -1.000000 
2.032932 -0.220971 -1.000000 
1.944544 -0.265165 -1.000000 
1.856155 -0.220971 -1.000000 
2.121320 -0.088388 -1.000000 
2.209709 -0.132583 -1.000000 
2.121320 -0.176777 -1.000000 
2.032932 -0.132582 -1.000000 
2.298097 -0.176777 -1.000000 
2.386485 -0.220971 -1.000000 
2.298097 -0.265165 -1.000000 
2.209709 -0.220971 -1.000000 
1.237437 0.176777 -1.000000 
1.325825 0.132583 -1.000000 
1.237437 0.088388 -1.000000 
1.149049 0.132583 -1.000000 
1.414214 0.265165 -1.000000 
1.502602 0.220971 -1.000000 
1.414214 0.176777 -1.000000 
1.325825 0.220971 -1.000000 
1.590990 0.176777 -1.000000 
1.679379 0.132583 -1.000000 
1.590990 0.088388 -1.000000 
1.502602 0.132583 -1.000000 
0.530330 -0.176777 -1.000000 
0.618718 -0.220971 -1.000000 
0.530330 -0.265165 -1.000000 
0.441942 -0.220971 -1.000000 
0.707107 -0.088388 -1.000000 
0.795495 -0.132583 -1.000000 
0.707107 -0.176777 -1.000000 
0.618718 -0.132583 -1.000000 
0.883883 -0.176777 -1.000000 
0.972272 -0.220971 -1.000000 
0.883883 -0.265165 -1.000000 
0.795495 -0.220971 -1.000000 
-2.032932 -0.397748 -0.187500 
-2.032932 -0.397748 -0.125000 
-2.121320 -0.353553 -0.125000 
-2.121320 -0.353553 -0.187500 
-1.856155 -0.486136 -0.187500 
-1.856155 -0.486136 -0.125000 
-1.944544 -0.441942 -0.125000 
-1.944544 -0.441942 -0.187500 
-1.856155 -0.486136 -0.062500 
-1.856155 -0.486136 0.000000 
-1.944544 -0.441942 0.000000 
-1.944544 -0.441942 -0.062500 
-2.032932 -0.397748 -0.687500 
-2.032932 -0.397748 -0.625000 
-2.121320 -0.353553 -0.625000 
-2.121320 -0.353553 -0.687500 
-1.856155 -0.486136 -0.687500 
-1.856155 -0.486136 -0.625000 
-1.944544 -0.441942 -0.625000 
-1.944544 -0.441942 -0.687500 
-1.856155 -0.486136 -0.562500 
-1.856155 -0.486136 -0.500000 
-1.944544 -0.441942 -0.500000 
-1.944544 -0.441942 -0.562500 
-2.740039 -0.044194 -0.687500 
-2.740039 -0.044194 -0.625000 
-2.828427 0.000000 -0.625000 
-2.828427 0.000000 -0.687500 
-2.563262 -0.132583 -0.687500 
-2.563262 -0.132583 -0.625000 
-2.651650 -0.088388 -0.625000 
-2.651650 -0.088388 -0.687500 
-2.563262 -0.132583 -0.562500 
-2.563262 -0.132583 -0.500000 
-2.651650 -0.088388 -0.500000 
-2.651650 -0.088388 -0.562500 
-0.618718 -1.104854 -0.187500 
-0.618718 -1.104854 -0.125000 
-0.707107 -1.060660 -0.125000 
-0.707107 -1.060660 -0.187500 
-0.441942 -1.193243 -0.187500 
-0.441942 -1.193243 -0.125000 
-0.530330 -1.149049 -0.125000 
-0.530330 -1.149049 -0.187500 
-0.441942 -1.193243 -0.062500 
-0.441942 -1.193243 0.000000 
-0.530330 -1.149049 0.000000 
-0.530330 -1.149049 -0.062500 
-0.618718 -1.104854 -0.687500 
-0.618718 -1.104854 -0.625000 
-0.707107 -1.060660 -0.625000 
-0.707107 -1.060660 -0.687500 
-0.441942 -1.193243 -0.687500 
-0.441942 -1.193243 -0.625000 
-0.530330 -1.149049 -0.625000 
-0.530330 -1.149049 -0.687500 
-0.441942 -1.193243 -0.562500 
-0.441942 -1.193243 -0.500000 
-0.530330 -1.149049 -0.500000 
-0.530330 -1.149049 -0.562500 
-1.325825 -0.751301 -0.687500 
-1.325825 -0.751301 -0.625000 
-1.414214 -0.707107 -0.625000 
-1.414214 -0.707107 -0.687500 
-1.149049 -0.839689 -0.687500 
-1.149049 -0.839689 -0.625000 
-1.237437 -0.795495 -0.625000 
-1.237437 -0.795495 -0.687500 
-1.149049 -0.839689 -0.562500 
-1.149049 -0.839689 -0.500000 
-1.237437 -0.795495 -0.500000 
-1.237437 -0.795495 -0.562500 
-0.618718 -1.104854 0.812500 
-0.618718 -1.104854 0.875000 
-0.707107 -1.060660 0.875000 
-0.707107 -1.060660 0.812500 
-0.441942 -1.193243 0.812500 
-0.441942 -1.193243 0.875000 
-0.530330 -1.149049 0.875000 
-0.530330 -1.149049 0.812500 
-0.441942 -1.193243 0.937500 
-0.441942 -1.193243 1.000000 
-0.530330 -1.149049 1.000000 
-0.530330 -1.149049 0.937500 
-0.618718 -1.104854 0.312500 
-0.618718 -1.104854 0.375000 
-0.707107 -1.060660 0.375000 
-0.707107 -1.060660 0.312500 
-0.441942 -1.193243 0.312500 
-0.441942 -1.193243 0.375000 
-0.530330 -1.149049 0.375000 
-0.530330 -1.149049 0.312500 
-0.441942 -1.193243 0.437500 
-0.441942 -1.193243 0.500000 
-0.530330 -1.149049 0.500000 
-0.530330 -1.149049 0.437500 
-1.325825 -0.751301 0.312500 
-1.325825 -0.751301 0.375000 
-1.414214 -0.707107 0.375000 
-1.414214 -0.707107 0.312500 
-1.149049 -0.839689 0.312500 
-1.149049 -0.839689 0.375000 
-1.237437 -0.795495 0.375000 
-1.237437 -0.795495 0.312500 
-1.149049 -0.839689 0.437500 
-1.149049 -0.839689 0.500000 
-1.237437 -0.795495 0.500000 
-1.237437 -0.795495 0.437500 
0.795495 -1.016466 -0.187500 
0.795495 -1.016466 -0.125000 
0.707107 -1.060660 -0.125000 
0.707107 -1.060660 -0.187500 
0.972272 -0.928078 -0.187500 
0.972272 -0.928078 -0.125000 
0.883883 -0.972272 -0.125000 
0.883883 -0.972272 -0.187500 
0.972272 -0.928078 -0.062500 
0.972272 -0.928078 0.000000 
0.883883 -0.972272 0.000000 
0.883883 -0.972272 -0.062500 
0.795495 -1.016466 -0.687500 
0.795495 -1.016466 -0.625000 
0.707107 -1.060660 -0.625000 
0.707107 -1.060660 -0.687500 
0.972272 -0.928078 -0.687500 
0.972272 -0.928078 -0.625000 
0.883883 -0.972272 -0.625000 
0.883883 -0.972272 -0.687500 
0.972272 -0.928078 -0.562500 
0.972272 -0.928078 -0.500000 
0.883883 -0.972272 -0.500000 
0.883883 -0.972272 -0.562500 
0.088388 -1.370019 -0.687500 
0.088388 -1.370019 -0.625000 
-0.000000 -1.414214 -0.625000 
-0.000000 -1.414214 -0.687500 
0.265165 -1.281631 -0.687500 
0.265165 -1.281631 -0.625000 
0.176777 -1.325825 -0.625000 
0.176777 -1.325825 -0.687500 
0.265165 -1.281631 -0.562500 
0.265165 -1.281631 -0.500000 
0.176777 -1.325825 -0.500000 
0.176777 -1.325825 -0.562500 
2.209709 -0.309359 -0.187500 
2.209709 -0.309359 -0.125000 
2.121320 -0.353553 -0.125000 
2.121320 -0.353553 -0.187500 
2.386485 -0.220971 -0.187500 
2.386485 -0.220971 -0.125000 
2.298097 -0.265165 -0.125000 
2.298097 -0.265165 -0.187500 
2.386485 -0.220971 -0.062500 
2.386485 -0.220971 0.000000 
2.298097 -0.265165 0.000000 
2.298097 -0.265165 -0.062500 
2.209709 -0.309359 -0.687500 
2.209709 -0.309359 -0.625000 
2.121320 -0.353553 -0.625000 
2.121320 -0.353553 -0.687500 
2.386485 -0.220971 -0.687500 
2.386485 -0.220971 -0.625000 
2.298097 -0.265165 -0.625000 
2.298097 -0.265165 -0.687500 
2.386485 -0.220971 -0.562500 
2.386485 -0.220971 -0.500000 
2.298097 -0.265165 -0.500000 
2.298097 -0.265165 -0.562500 
1.502602 -0.662913 -0.687500 
1.502602 -0.662913 -0.625000 
1.414214 -0.707107 -0.625000 
1.414214 -0.707107 -0.687500 
1.679379 -0.574524 -0.687500 
1.679379 -0.574524 -0.625000 
1.590990 -0.618718 -0.625000 
1.590990 -0.618718 -0.687500 
1.679379 -0.574524 -0.562500 
1.679379 -0.574524 -0.500000 
1.590990 -0.618718 -0.500000 
1.590990 -0.618718 -0.562500 
2.209709 -0.309359 0.812500 
2.209709 -0.309359 0.875000 
2.121320 -0.353553 0.875000 
2.121320 -0.353553 0.812500 
2.386485 -0.220971 0.812500 
2.386485 -0.220971 0.875000 
2.298097 -0.265165 0.875000 
2.298097 -0.265165 0.812500 
2.386485 -0.220971 0.937500 
2.386485 -0.220971 1.000000 
2.298097 -0.265165 1.000000 
2.298097 -0.265165 0.937500 
2.209709 -0.309359 0.312500 
2.209709 -0.309359 0.375000 
2.121320 -0.353553 0.375000 
2.121320 -0.353553 0.312500 
2.386485 -0.220971 0.312500 
2.386485 -0.220971 0.375000 
2.298097 -0.265165 0.375000 
2.298097 -0.265165 0.312500 
2.386485 -0.220971 0.437500 
2.386485 -0.220971 0.500000 
2.298097 -0.265165 0.500000 
2.298097 -0.265165 0.437500 
1.502602 -0.662913 0.312500 
1.502602 -0.662913 0.375000 
1.414214 -0.707107 0.375000 
1.414214 -0.707107 0.312500 
1.679379 -0.574524 0.312500 
1.679379 -0.574524 0.375000 
1.590990 -0.618718 0.375000 
1.590990 -0.618718 0.312500 
1.679379 -0.574524 0.437500 
1.679379 -0.574524 0.500000 
1.590990 -0.618718 0.500000 
1.590990 -0.618718 0.437500 
2.032932 0.397748 -0.187500 
2.032932 0.397748 -0.125000 
2.121320 0.353553 -0.125000 
2.121320 0.353553 -0.187500 
1.856155 0.486136 -0.187500 
1.856155 0.486136 -0.125000 
1.944544 0.441942 -0.125000 
1.944544 0.441942 -0.187500 
1.856155 0.486136 -0.062500 
1.856155 0.486136 0.000000 
1.944544 0.441942 0.000000 
1.944544 0.441942 -0.062500 
2.032932 0.397748 -0.687500 
2.032932 0.397748 -0.625000 
2.121320 0.353553 -0.625000 
2.121320 0.353553 -0.687500 
1.856155 0.486136 -0.687500 
1.856155 0.486136 -0.625000 
1.944544 0.441942 -0.625000 
1.944544 0.441942 -0.687500 
1.856155 0.486136 -0.562500 
1.856155 0.486136 -0.500000 
1.944544 0.441942 -0.500000 
1.944544 0.441942 -0.562500 
2.740039 0.044194 -0.687500 
2.740039 0.044194 -0.625000 
2.828427 0.000000 -0.625000 
2.828427 0.000000 -0.687500 
2.563262 0.132583 -0.687500 
2.563262 0.132583 -0.625000 
2.651650 0.088388 -0.625000 
2.651650 0.088388 -0.687500 
2.563262 0.132583 -0.562500 
2.563262 0.132583 -0.500000 
2.651650 0.088388 -0.500000 
2.651650 0.088388 -0.562500 
0.618718 1.104854 -0.187500 
0.618718 1.104854 -0.125000 
0.707107 1.060660 -0.125000 
0.707107 1.060660 -0.187500 
0.441942 1.193243 -0.187500 
0.441942 1.193243 -0.125000 
0.530330 1.149049 -0.125000 
0.530330 1.149049 -0.187500 
0.441942 1.193243 -0.062500 
0.441942 1.193243 0.000000 
0.530330 1.149049 0.000000 
0.530330 1.149049 -0.062500 
0.618718 1.104854 -0.687500 
0.618718 1.104854 -0.625000 
0.707107 1.060660 -0.625000 
0.707107 1.060660 -0.687500 
0.441942 1.193243 -0.687500 
0.441942 1.193243 -0.625000 
0.530330 1.149049 -0.625000 
0.530330 1.149049 -0.687500 
0.441942 1.193243 -0.562500 
0.441942 1.193243 -0.500000 
0.530330 1.149049 -0.500000 
0.530330 1.149049 -0.562500 
1.325825 0.751301 -0.687500 
1.325825 0.751301 -0.625000 
1.414214 0.707107 -0.625000 
1.414214 0.707107 -0.687500 
1.149049 0.839689 -0.687500 
1.149049 0.839689 -0.625000 
1.237437 0.795495 -0.625000 
1.237437 0.795495 -0.687500 
1.149049 0.839689 -0.562500 
1.149049 0.839689 -0.500000 
1.237437 0.795495 -0.500000 
1.237437 0.795495 -0.562500 
0.618718 1.104854 0.812500 
0.618718 1.104854 0.875000 
0.707107 1.060660 0.875000 
0.707107 1.060660 0.812500 
0.441942 1.193243 0.812500 
0.441942 1.193243 0.875000 
0.530330 1.149049 0.875000 
0.530330 1.149049 0.812500 
0.441942 1.193243 0.937500 
0.441942 1.193243 1.000000 
0.530330 1.149049 1.000000 
0.530330 1.149049 0.937500 
0.618718 1.104854 0.312500 
0.618718 1.104854 0.375000 
0.707107 1.060660 0.375000 
0.707107 1.060660 0.312500 
0.441942 1.193243 0.312500 
0.441942 1.193243 0.375000 
0.530330 1.149049 0.375000 
0.530330 1.149049 0.312500 
0.441942 1.193243 0.437500 
0.441942 1.193243 0.500000 
0.530330 1.149049 0.500000 
0.530330 1.149049 0.437500 
1.325825 0.751301 0.312500 
1.325825 0.751301 0.375000 
1.414214 0.707107 0.375000 
1.414214 0.707107 0.312500 
1.149049 0.839689 0.312500 
1.149049 0.839689 0.375000 
1.237437 0.795495 0.375000 
1.237437 0.795495 0.312500 
1.149049 0.839689 0.437500 
1.149049 0.839689 0.500000 
1.237437 0.795495 0.500000 
1.237437 0.795495 0.437500 
-0.795495 1.016466 -0.187500 
-0.795495 1.016466 -0.125000 
-0.707107 1.060660 -0.125000 
-0.707107 1.060660 -0.187500 
-0.972272 0.928078 -0.187500 
-0.972272 0.928078 -0.125000 
-0.883883 0.972272 -0.125000 
-0.883883 0.972272 -0.187500 
-0.972272 0.928078 -0.062500 
-0.972272 0.928078 0.000000 
-0.883883 0.972272 0.000000 
-0.883883 0.972272 -0.062500 
-0.795495 1.016466 -0.687500 
-0.795495 1.016466 -0.625000 
-0.707107 1.060660 -0.625000 
-0.707107 1.060660 -0.687500 
-0.972272 0.928078 -0.687500 
-0.972272 0.928078 -0.625000 
-0.883883 0.972272 -0.625000 
-0.883883 0.972272 -0.687500 
-0.972272 0.928078 -0.562500 
-0.972272 0.928078 -0.500000 
-0.883883 0.972272 -0.500000 
-0.883883 0.972272 -0.562500 
-0.088388 1.370019 -0.687500 
-0.088388 1.370019 -0.625000 
-0.000000 1.414214 -0.625000 
-0.000000 1.414214 -0.687500 
-0.265165 1.281631 -0.687500 
-0.265165 1.281631 -0.625000 
-0.176777 1.325825 -0.625000 
-0.176777 1.325825 -0.687500 
-0.265165 1.281631 -0.562500 
-0.265165 1.281631 -0.500000 
-0.176777 1.325825 -0.500000 
-0.176777 1.325825 -0.562500 
-2.209709 0.309359 -0.187500 
-2.209709 0.309359 -0.125000 
-2.121320 0.353553 -0.125000 
-2.121320 0.353553 -0.187500 
-2.386485 0.220971 -0.187500 
-2.386485 0.220971 -0.125000 
-2.298097 0.265165 -0.125000 
-2.298097 0.265165 -0.187500 
-2.386485 0.220971 -0.062500 
-2.386485 0.220971 0.000000 
-2.298097 0.265165 0.000000 
-2.298097 0.265165 -0.062500 
-2.209709 0.309359 -0.687500 
-2.209709 0.309359 -0.625000 
-2.121320 0.353553 -0.625000 
-2.121320 0.353553 -0.687500 
-2.386485 0.220971 -0.687500 
-2.386485 0.220971 -0.625000 
-2.298097 0.265165 -0.625000 
-2.298097 0.265165 -0.687500 
-2.386485 0.220971 -0.562500 
-2.386485 0.220971 -0.500000 
-2.298097 0.265165 -0.500000 
-2.298097 0.265165 -0.562500 
-1.502602 0.662913 -0.687500 
-1.502602 0.662913 -0.625000 
-1.414214 0.707107 -0.625000 
-1.414214 0.707107 -0.687500 
-1.679379 0.574524 -0.687500 
-1.679379 0.574524 -0.625000 
-1.590990 0.618718 -0.625000 
-1.590990 0.618718 -0.687500 
-1.679379 0.574524 -0.562500 
-1.679379 0.574524 -0.500000 
-1.590990 0.618718 -0.500000 
-1.590990 0.618718 -0.562500 
-2.209709 0.309359 0.812500 
-2.209709 0.309359 0.875000 
-2.121320 0.353553 0.875000 
-2.121320 0.353553 0.812500 
-2.386485 0.220971 0.812500 
-2.386485 0.220971 0.875000 
-2.298097 0.265165 0.875000 
-2.298097 0.265165 0.812500 
-2.386485 0.220971 0.937500 
-2.386485 0.220971 1.000000 
-2.298097 0.265165 1.000000 
-2.298097 0.265165 0.937500 
-2.209709 0.309359 0.312500 
-2.209709 0.309359 0.375000 
-2.121320 0.353553 0.375000 
-2.121320 0.353553 0.312500 
-2.386485 0.220971 0.312500 
-2.386485 0.220971 0.375000 
-2.298097 0.265165 0.375000 
-2.298097 0.265165 0.312500 
-2.386485 0.220971 0.437500 
-2.386485 0.220971 0.500000 
-2.298097 0.265165 0.500000 
-2.298097 0.265165 0.437500 
-1.502602 0.662913 0.312500 
-1.502602 0.662913 0.375000 
-1.414214 0.707107 0.375000 
-1.414214 0.707107 0.312500 
-1.679379 0.574524 0.312500 
-1.679379 0.574524 0.375000 
-1.590990 0.618718 0.375000 
-1.590990 0.618718 0.312500 
-1.679379 0.574524 0.437500 
-1.679379 0.574524 0.500000 
-1.590990 0.618718 0.500000 
-1.590990 0.618718 0.437500 
-1.502602 0.662913 0.812500 
-1.502602 0.662913 0.875000 
-1.414214 0.707107 0.875000 
-1.414214 0.707107 0.812500 
-1.679379 0.574524 0.812500 
-1.679379 0.574524 0.875000 
-1.590990 0.618718 0.875000 
-1.590990 0.618718 0.812500 
-1.679379 0.574524 0.937500 
-1.679379 0.574524 1.000000 
-1.590990 0.618718 1.000000 
-1.590990 0.618718 0.937500 
-1.502602 0.662913 -0.187500 
-1.502602 0.662913 -0.125000 
-1.414214 0.707107 -0.125000 
-1.414214 0.707107 -0.187500 
-1.679379 0.574524 -0.187500 
-1.679379 0.574524 -0.125000 
-1.590990 0.618718 -0.125000 
-1.590990 0.618718 -0.187500 
-1.679379 0.574524 -0.062500 
-1.679379 0.574524 0.000000 
-1.590990 0.618718 0.000000 
-1.590990 0.618718 -0.062500 
-0.088388 1.370019 -0.187500 
-0.088388 1.370019 -0.125000 
-0.000000 1.414214 -0.125000 
-0.000000 1.414214 -0.187500 
-0.265165 1.281631 -0.187500 
-0.265165 1.281631 -0.125000 
-0.176777 1.325825 -0.125000 
-0.176777 1.325825 -0.187500 
-0.265165 1.281631 -0.062500 
-0.265165 1.281631 0.000000 
-0.176777 1.325825 0.000000 
-0.176777 1.325825 -0.062500 
1.325825 0.751301 0.812500 
1.325825 0.751301 0.875000 
1.414214 0.707107 0.875000 
1.414214 0.707107 0.812500 
1.149049 0.839689 0.812500 
1.149049 0.839689 0.875000 
1.237437 0.795495 0.875000 
1.237437 0.795495 0.812500 
1.149049 0.839689 0.937500 
1.149049 0.839689 1.000000 
1.237437 0.795495 1.000000 
1.237437 0.795495 0.937500 
1.325825 0.751301 -0.187500 
1.325825 0.751301 -0.125000 
1.414214 0.707107 -0.125000 
1.414214 0.707107 -0.187500 
1.149049 0.839689 -0.187500 
1.149049 0.839689 -0.125000 
1.237437 0.795495 -0.125000 
1.237437 0.795495 -0.187500 
1.149049 0.839689 -0.062500 
1.149049 0.839689 0.000000 
1.237437 0.795495 0.000000 
1.237437 0.795495 -0.062500 
2.740039 0.044194 -0.187500 
2.740039 0.044194 -0.125000 
2.828427 0.000000 -0.125000 
2.828427 0.000000 -0.187500 
2.563262 0.132583 -0.187500 
2.563262 0.132583 -0.125000 
2.651650 0.088388 -0.125000 
2.651650 0.088388 -0.187500 
2.563262 0.132583 -0.062500 
2.563262 0.132583 0.000000 
2.651650 0.088388 0.000000 
2.651650 0.088388 -0.062500 
1.502602 -0.662913 0.812500 
1.502602 -0.662913 0.875000 
1.414214 -0.707107 0.875000 
1.414214 -0.707107 0.812500 
1.679379 -0.574524 0.812500 
1.679379 -0.574524 0.875000 
1.590990 -0.618718 0.875000 
1.590990 -0.618718 0.812500 
1.679379 -0.574524 0.937500 
1.679379 -0.574524 1.000000 
1.590990 -0.618718 1.000000 
1.590990 -0.618718 0.937500 
1.502602 -0.662913 -0.187500 
1.502602 -0.662913 -0.125000 
1.414214 -0.707107 -0.125000 
1.414214 -0.707107 -0.187500 
1.679379 -0.574524 -0.187500 
1.679379 -0.574524 -0.125000 
1.590990 -0.618718 -0.125000 
1.590990 -0.618718 -0.187500 
1.679379 -0.574524 -0.062500 
1.679379 -0.574524 0.000000 
1.590990 -0.618718 0.000000 
1.590990 -0.618718 -0.062500 
0.088388 -1.370019 -0.187500 
0.088388 -1.370019 -0.125000 
-0.000000 -1.414214 -0.125000 
-0.000000 -1.414214 -0.187500 
0.265165 -1.281631 -0.187500 
0.265165 -1.281631 -0.125000 
0.176777 -1.325825 -0.125000 
0.176777 -1.325825 -0.187500 
0.265165 -1.281631 -0.062500 
0.265165 -1.281631 0.000000 
0.176777 -1.325825 0.000000 
0.176777 -1.325825 -0.062500 
-1.325825 -0.751301 0.812500 
-1.325825 -0.751301 0.875000 
-1.414214 -0.707107 0.875000 
-1.414214 -0.707107 0.812500 
-1.149049 -0.839689 0.812500 
-1.149049 -0.839689 0.875000 
-1.237437 -0.795495 0.875000 
-1.237437 -0.795495 0.812500 
-1.149049 -0.839689 0.937500 
-1.149049 -0.839689 1.000000 
-1.237437 -0.795495 1.000000 
-1.237437 -0.795495 0.937500 
-1.325825 -0.751301 -0.187500 
-1.325825 -0.751301 -0.125000 
-1.414214 -0.707107 -0.125000 
-1.414214 -0.707107 -0.187500 
-1.149049 -0.839689 -0.187500 
-1.149049 -0.839689 -0.125000 
-1.237437 -0.795495 -0.125000 
-1.237437 -0.795495 -0.187500 
-1.149049 -0.839689 -0.062500 
-1.149049 -0.839689 0.000000 
-1.237437 -0.795495 0.000000 
-1.237437 -0.795495 -0.062500 
-2.740039 -0.044194 -0.187500 
-2.740039 -0.044194 -0.125000 
-2.828427 0.000000 -0.125000 
-2.828427 0.000000 -0.187500 
-2.563262 -0.132583 -0.187500 
-2.563262 -0.132583 -0.125000 
-2.651650 -0.088388 -0.125000 
-2.651650 -0.088388 -0.187500 
-2.563262 -0.132583 -0.062500 
-2.563262 -0.132583 0.000000 
-2.651650 -0.088388 0.000000 
-2.651650 -0.088388 -0.062500 
1.237437 -0.530330 -1.000000 
1.325825 -0.574524 -1.000000 
1.237437 -0.618718 -1.000000 
1.149048 -0.574524 -1.000000 
1.414213 -0.441942 -1.000000 
1.502602 -0.486136 -1.000000 
1.414214 -0.530330 -1.000000 
1.325825 -0.486136 -1.000000 
1.590990 -0.530330 -1.000000 
1.679379 -0.574524 -1.000000 
1.590990 -0.618718 -1.000000 
1.502602 -0.574524 -1.000000 
-0.176777 0.176777 -1.000000 
-0.088388 0.132583 -1.000000 
-0.176777 0.088388 -1.000000 
-0.265165 0.132583 -1.000000 
-0.000000 0.265165 -1.000000 
0.088388 0.220971 -1.000000 
-0.000000 0.176777 -1.000000 
-0.088388 0.220971 -1.000000 
0.176777 0.176777 -1.000000 
0.265165 0.132583 -1.000000 
0.176777 0.088388 -1.000000 
0.088388 0.132583 -1.000000 
-1.590990 -0.530330 -1.000000 
-1.502602 -0.574524 -1.000000 
-1.590990 -0.618718 -1.000000 
-1.679379 -0.574524 -1.000000 
-1.414213 -0.441942 -1.000000 
-1.325825 -0.486136 -1.000000 
-1.414214 -0.530330 -1.000000 
-1.502602 -0.486136 -1.000000 
-1.237437 -0.530330 -1.000000 
-1.149048 -0.574524 -1.000000 
-1.237437 -0.618718 -1.000000 
-1.325825 -0.574524 -1.000000 
-1.060660 0.618718 1.000000 
-1.149049 0.662913 1.000000 
-1.237437 0.618718 1.000000 
-1.149048 0.574524 1.000000 
-0.883883 0.707107 1.000000 
-0.972272 0.751301 1.000000 
-1.060660 0.707107 1.000000 
-0.972272 0.662913 1.000000 
-1.060660 0.795495 1.000000 
-1.149049 0.839689 1.000000 
-1.237437 0.795495 1.000000 
-1.149049 0.751301 1.000000 
0.353553 -0.088388 1.000000 
0.265165 -0.044194 1.000000 
0.176777 -0.088388 1.000000 
0.265165 -0.132583 1.000000 
0.530330 0.000000 1.000000 
0.441942 0.044194 1.000000 
0.353553 0.000000 1.000000 
0.441942 -0.044194 1.000000 
0.353553 0.088388 1.000000 
0.265165 0.132583 1.000000 
0.176777 0.088388 1.000000 
0.265165 0.044194 1.000000 
-1.060660 -0.795495 1.000000 
-1.149049 -0.751301 1.000000 
-1.237437 -0.795495 1.000000 
-1.149049 -0.839689 1.000000 
-0.883883 -0.707107 1.000000 
-0.972272 -0.662913 1.000000 
-1.060660 -0.707107 1.000000 
-0.972272 -0.751301 1.000000 
-1.060660 -0.618718 1.000000 
-1.149048 -0.574524 1.000000 
-1.237437 -0.618718 1.000000 
-1.149049 -0.662913 1.000000 
-2.474874 -0.088388 1.000000 
-2.563262 -0.044194 1.000000 
-2.651650 -0.088388 1.000000 
-2.563262 -0.132583 1.000000 
-2.298097 0.000000 1.000000 
-2.386485 0.044194 1.000000 
-2.474874 0.000000 1.000000 
-2.386485 -0.044194 1.000000 
-2.474874 0.088388 1.000000 
-2.563262 0.132583 1.000000 
-2.651650 0.088388 1.000000 
-2.563262 0.044194 1.000000 
-0.176777 -1.237437 -1.000000 
-0.088388 -1.281631 -1.000000 
-0.176777 -1.325825 -1.000000 
-0.265165 -1.281631 -1.000000 
-0.000000 -1.149048 -1.000000 
0.088388 -1.193243 -1.000000 
-0.000000 -1.237437 -1.000000 
-0.088388 -1.193243 -1.000000 
0.176777 -1.237437 -1.000000 
0.265165 -1.281631 -1.000000 
0.176777 -1.325825 -1.000000 
0.088388 -1.281631 -1.000000 
-2.740039 -0.044194 0.812500 
-2.740039 -0.044194 0.875000 
-2.828427 0.000000 0.875000 
-2.828427 0.000000 0.812500 
-2.563262 -0.132583 0.812500 
-2.563262 -0.132583 0.875000 
-2.651650 -0.088388 0.875000 
-2.651650 -0.088388 0.812500 
-2.563262 -0.132583 0.937500 
-2.563262 -0.132583 1.000000 
-2.651650 -0.088388 1.000000 
-2.651650 -0.088388 0.937500 
0.088388 -1.370019 0.812500 
0.088388 -1.370019 0.875000 
-0.000000 -1.414214 0.875000 
-0.000000 -1.414214 0.812500 
0.265165 -1.281631 0.812500 
0.265165 -1.281631 0.875000 
0.176777 -1.325825 0.875000 
0.176777 -1.325825 0.812500 
0.265165 -1.281631 0.937500 
0.265165 -1.281631 1.000000 
0.176777 -1.325825 1.000000 
0.176777 -1.325825 0.937500 
2.740039 0.044194 0.812500 
2.740039 0.044194 0.875000 
2.828427 0.000000 0.875000 
2.828427 0.000000 0.812500 
2.563262 0.132583 0.812500 
2.563262 0.132583 0.875000 
2.651650 0.088388 0.875000 
2.651650 0.088388 0.812500 
2.563262 0.132583 0.937500 
2.563262 0.132583 1.000000 
2.651650 0.088388 1.000000 
2.651650 0.088388 0.937500 
-0.088388 1.370019 0.812500 
-0.088388 1.370019 0.875000 
-0.000000 1.414214 0.875000 
-0.000000 1.414214 0.812500 
-0.265165 1.281631 0.812500 
-0.265165 1.281631 0.875000 
-0.176777 1.325825 0.875000 
-0.176777 1.325825 0.812500 
-0.265165 1.281631 0.937500 
-0.265165 1.281631 1.000000 
-0.176777 1.325825 1.000000 
-0.176777 1.325825 0.937500 
-0.353553 1.237437 0.875000 
-0.353553 1.237437 0.937500 
-0.353553 1.237437 1.000000 
-0.353553 1.237437 0.750000 
-0.353553 1.237437 0.812500 
-0.088388 1.370019 0.812500 
-0.088388 1.370019 0.750000 
-0.088388 1.370019 0.875000 
2.474874 0.176777 0.875000 
2.474874 0.176777 0.937500 
2.563262 0.132583 0.937500 
2.563262 0.132583 0.875000 
2.474874 0.176777 1.000000 
2.563262 0.132583 1.000000 
2.474874 0.176777 0.750000 
2.474874 0.176777 0.812500 
2.563262 0.132583 0.812500 
2.563262 0.132583 0.750000 
2.651650 0.088388 0.750000 
2.651650 0.088388 0.812500 
2.740039 0.044194 0.812500 
2.740039 0.044194 0.750000 
2.651650 0.088388 0.875000 
2.740039 0.044194 0.875000 
0.353553 -1.237437 0.875000 
0.353553 -1.237437 0.937500 
0.353553 -1.237437 1.000000 
0.353553 -1.237437 0.750000 
0.353553 -1.237437 0.812500 
0.088388 -1.370019 0.812500 
0.088388 -1.370019 0.750000 
0.088388 -1.370019 0.875000 
-2.474874 -0.176777 0.875000 
-2.474874 -0.176777 0.937500 
-2.563262 -0.132583 0.937500 
-2.563262 -0.132583 0.875000 
-2.474874 -0.176777 1.000000 
-2.563262 -0.132583 1.000000 
-2.474874 -0.176777 0.750000 
-2.474874 -0.176777 0.812500 
-2.563262 -0.132583 0.812500 
-2.563262 -0.132583 0.750000 
-2.651650 -0.088388 0.750000 
-2.651650 -0.088388 0.812500 
-2.740039 -0.044194 0.812500 
-2.740039 -0.044194 0.750000 
-2.651650 -0.088388 0.875000 
-2.740039 -0.044194 0.875000 
-2.474874 -0.176777 -0.125000 
-2.474874 -0.176777 -0.062500 
-2.563262 -0.132583 -0.062500 
-2.563262 -0.132583 -0.125000 
-2.474874 -0.176777 0.000000 
-2.563262 -0.132583 0.000000 
-2.474874 -0.176777 -0.250000 
-2.474874 -0.176777 -0.187500 
-2.563262 -0.132583 -0.187500 
-2.563262 -0.132583 -0.250000 
-2.651650 -0.088388 -0.250000 
-2.651650 -0.088388 -0.187500 
-2.740039 -0.044194 -0.187500 
-2.740039 -0.044194 -0.250000 
-2.651650 -0.088388 -0.125000 
-2.740039 -0.044194 -0.125000 
0.353553 -1.237437 -0.125000 
0.353553 -1.237437 -0.062500 
0.353553 -1.237437 0.000000 
0.353553 -1.237437 -0.250000 
0.353553 -1.237437 -0.187500 
0.088388 -1.370019 -0.187500 
0.088388 -1.370019 -0.250000 
0.088388 -1.370019 -0.125000 
2.474874 0.176777 -0.125000 
2.474874 0.176777 -0.062500 
2.563262 0.132583 -0.062500 
2.563262 0.132583 -0.125000 
2.474874 0.176777 0.000000 
2.563262 0.132583 0.000000 
2.474874 0.176777 -0.250000 
2.474874 0.176777 -0.187500 
2.563262 0.132583 -0.187500 
2.563262 0.132583 -0.250000 
2.651650 0.088388 -0.250000 
2.651650 0.088388 -0.187500 
2.740039 0.044194 -0.187500 
2.740039 0.044194 -0.250000 
2.651650 0.088388 -0.125000 
2.740039 0.044194 -0.125000 
-0.353553 1.237437 -0.125000 
-0.353553 1.237437 -0.062500 
-0.353553 1.237437 0.000000 
-0.353553 1.237437 -0.250000 
-0.353553 1.237437 -0.187500 
-0.088388 1.370019 -0.187500 
-0.088388 1.370019 -0.250000 
-0.088388 1.370019 -0.125000 
-2.474874 0.176777 0.375000 
-2.474874 0.176777 0.437500 
-2.474874 0.176777 0.500000 
-2.474874 0.176777 0.250000 
-2.474874 0.176777 0.312500 
-2.298097 0.265165 0.250000 
-2.298097 0.265165 0.312500 
-2.209709 0.309359 0.312500 
-2.209709 0.309359 0.250000 
-2.298097 0.265165 0.375000 
-2.209709 0.309359 0.375000 
-2.474874 0.176777 0.875000 
-2.474874 0.176777 0.937500 
-2.474874 0.176777 1.000000 
-2.474874 0.176777 0.750000 
-2.474874 0.176777 0.812500 
-2.298097 0.265165 0.750000 
-2.298097 0.265165 0.812500 
-2.209709 0.309359 0.812500 
-2.209709 0.309359 0.750000 
-2.298097 0.265165 0.875000 
-2.209709 0.309359 0.875000 
-2.474874 0.176777 -0.625000 
-2.474874 0.176777 -0.562500 
-2.474874 0.176777 -0.500000 
-2.474874 0.176777 -0.750000 
-2.474874 0.176777 -0.687500 
-2.298097 0.265165 -0.750000 
-2.298097 0.265165 -0.687500 
-2.209709 0.309359 -0.687500 
-2.209709 0.309359 -0.750000 
-2.298097 0.265165 -0.625000 
-2.209709 0.309359 -0.625000 
-2.474874 0.176777 -0.125000 
-2.474874 0.176777 -0.062500 
-2.474874 0.176777 0.000000 
-2.474874 0.176777 -0.250000 
-2.474874 0.176777 -0.187500 
-2.298097 0.265165 -0.250000 
-2.298097 0.265165 -0.187500 
-2.209709 0.309359 -0.187500 
-2.209709 0.309359 -0.250000 
-2.298097 0.265165 -0.125000 
-2.209709 0.309359 -0.125000 
-0.353553 1.237437 -0.625000 
-0.353553 1.237437 -0.562500 
-0.353553 1.237437 -0.500000 
-0.353553 1.237437 -0.750000 
-0.353553 1.237437 -0.687500 
-0.088388 1.370019 -0.687500 
-0.088388 1.370019 -0.750000 
-0.088388 1.370019 -0.625000 
0.353553 1.237437 0.375000 
0.353553 1.237437 0.437500 
0.353553 1.237437 0.500000 
0.353553 1.237437 0.250000 
0.353553 1.237437 0.312500 
0.530330 1.149049 0.250000 
0.530330 1.149049 0.312500 
0.530330 1.149049 0.375000 
0.353553 1.237437 0.875000 
0.353553 1.237437 0.937500 
0.353553 1.237437 1.000000 
0.353553 1.237437 0.750000 
0.353553 1.237437 0.812500 
0.530330 1.149049 0.750000 
0.530330 1.149049 0.812500 
0.530330 1.149049 0.875000 
0.353553 1.237437 -0.625000 
0.353553 1.237437 -0.562500 
0.353553 1.237437 -0.500000 
0.353553 1.237437 -0.750000 
0.353553 1.237437 -0.687500 
0.530330 1.149049 -0.750000 
0.530330 1.149049 -0.687500 
0.530330 1.149049 -0.625000 
0.353553 1.237437 -0.125000 
0.353553 1.237437 -0.062500 
0.353553 1.237437 0.000000 
0.353553 1.237437 -0.250000 
0.353553 1.237437 -0.187500 
0.530330 1.149049 -0.250000 
0.530330 1.149049 -0.187500 
0.530330 1.149049 -0.125000 
2.474874 0.176777 -0.625000 
2.474874 0.176777 -0.562500 
2.563262 0.132583 -0.562500 
2.563262 0.132583 -0.625000 
2.474874 0.176777 -0.500000 
2.563262 0.132583 -0.500000 
2.474874 0.176777 -0.750000 
2.474874 0.176777 -0.687500 
2.563262 0.132583 -0.687500 
2.563262 0.132583 -0.750000 
2.651650 0.088388 -0.750000 
2.651650 0.088388 -0.687500 
2.740039 0.044194 -0.687500 
2.740039 0.044194 -0.750000 
2.651650 0.088388 -0.625000 
2.740039 0.044194 -0.625000 
2.474874 -0.176777 0.375000 
2.474874 -0.176777 0.437500 
2.474874 -0.176777 0.500000 
2.474874 -0.176777 0.250000 
2.474874 -0.176777 0.312500 
2.298097 -0.265165 0.250000 
2.298097 -0.265165 0.312500 
2.209709 -0.309359 0.312500 
2.209709 -0.309359 0.250000 
2.298097 -0.265165 0.375000 
2.209709 -0.309359 0.375000 
2.474874 -0.176777 0.875000 
2.474874 -0.176777 0.937500 
2.474874 -0.176777 1.000000 
2.474874 -0.176777 0.750000 
2.474874 -0.176777 0.812500 
2.298097 -0.265165 0.750000 
2.298097 -0.265165 0.812500 
2.209709 -0.309359 0.812500 
2.209709 -0.309359 0.750000 
2.298097 -0.265165 0.875000 
2.209709 -0.309359 0.875000 
2.474874 -0.176777 -0.625000 
2.474874 -0.176777 -0.562500 
2.474874 -0.176777 -0.500000 
2.474874 -0.176777 -0.750000 
2.474874 -0.176777 -0.687500 
2.298097 -0.265165 -0.750000 
2.298097 -0.265165 -0.687500 
2.209709 -0.309359 -0.687500 
2.209709 -0.309359 -0.750000 
2.298097 -0.265165 -0.625000 
2.209709 -0.309359 -0.625000 
2.474874 -0.176777 -0.125000 
2.474874 -0.176777 -0.062500 
2.474874 -0.176777 0.000000 
2.474874 -0.176777 -0.250000 
2.474874 -0.176777 -0.187500 
2.298097 -0.265165 -0.250000 
2.298097 -0.265165 -0.187500 
2.209709 -0.309359 -0.187500 
2.209709 -0.309359 -0.250000 
2.298097 -0.265165 -0.125000 
2.209709 -0.309359 -0.125000 
0.353553 -1.237437 -0.625000 
0.353553 -1.237437 -0.562500 
0.353553 -1.237437 -0.500000 
0.353553 -1.237437 -0.750000 
0.353553 -1.237437 -0.687500 
0.088388 -1.370019 -0.687500 
0.088388 -1.370019 -0.750000 
0.088388 -1.370019 -0.625000 
-0.353553 -1.237437 0.375000 
-0.353553 -1.237437 0.437500 
-0.353553 -1.237437 0.500000 
-0.353553 -1.237437 0.250000 
-0.353553 -1.237437 0.312500 
-0.530330 -1.149049 0.250000 
-0.530330 -1.149049 0.312500 
-0.530330 -1.149049 0.375000 
-0.353553 -1.237437 0.875000 
-0.353553 -1.237437 0.937500 
-0.353553 -1.237437 1.000000 
-0.353553 -1.237437 0.750000 
-0.353553 -1.237437 0.812500 
-0.530330 -1.149049 0.750000 
-0.530330 -1.149049 0.812500 
-0.530330 -1.149049 0.875000 
-0.353553 -1.237437 -0.625000 
-0.353553 -1.237437 -0.562500 
-0.353553 -1.237437 -0.500000 
-0.353553 -1.237437 -0.750000 
-0.353553 -1.237437 -0.687500 
-0.530330 -1.149049 -0.750000 
-0.530330 -1.149049 -0.687500 
-0.530330 -1.149049 -0.625000 
-0.353553 -1.237437 -0.125000 
-0.353553 -1.237437 -0.062500 
-0.353553 -1.237437 0.000000 
-0.353553 -1.237437 -0.250000 
-0.353553 -1.237437 -0.187500 
-0.530330 -1.149049 -0.250000 
-0.530330 -1.149049 -0.187500 
-0.530330 -1.149049 -0.125000 
-2.474874 -0.176777 -0.625000 
-2.474874 -0.176777 -0.562500 
-2.563262 -0.132583 -0.562500 
-2.563262 -0.132583 -0.625000 
-2.474874 -0.176777 -0.500000 
-2.563262 -0.132583 -0.500000 
-2.474874 -0.176777 -0.750000 
-2.474874 -0.176777 -0.687500 
-2.563262 -0.132583 -0.687500 
-2.563262 -0.132583 -0.750000 
-2.651650 -0.088388 -0.750000 
-2.651650 -0.088388 -0.687500 
-2.740039 -0.044194 -0.687500 
-2.740039 -0.044194 -0.750000 
-2.651650 -0.088388 -0.625000 
-2.740039 -0.044194 -0.625000 
-2.474874 -0.176777 0.375000 
-2.474874 -0.176777 0.437500 
-2.563262 -0.132583 0.437500 
-2.563262 -0.132583 0.375000 
-2.474874 -0.176777 0.500000 
-2.563262 -0.132583 0.500000 
-2.474874 -0.176777 0.250000 
-2.474874 -0.176777 0.312500 
-2.563262 -0.132583 0.312500 
-2.563262 -0.132583 0.250000 
-2.651650 -0.088388 0.250000 
-2.651650 -0.088388 0.312500 
-2.740039 -0.044194 0.312500 
-2.740039 -0.044194 0.250000 
-2.651650 -0.088388 0.375000 
-2.740039 -0.044194 0.375000 
0.353553 -1.237437 0.375000 
0.353553 -1.237437 0.437500 
0.353553 -1.237437 0.500000 
0.353553 -1.237437 0.250000 
0.353553 -1.237437 0.312500 
0.088388 -1.370019 0.312500 
0.088388 -1.370019 0.250000 
0.088388 -1.370019 0.375000 
2.474874 0.176777 0.375000 
2.474874 0.176777 0.437500 
2.563262 0.132583 0.437500 
2.563262 0.132583 0.375000 
2.474874 0.176777 0.500000 
2.563262 0.132583 0.500000 
2.474874 0.176777 0.250000 
2.474874 0.176777 0.312500 
2.563262 0.132583 0.312500 
2.563262 0.132583 0.250000 
2.651650 0.088388 0.250000 
2.651650 0.088388 0.312500 
2.740039 0.044194 0.312500 
2.740039 0.044194 0.250000 
2.651650 0.088388 0.375000 
2.740039 0.044194 0.375000 
-0.353553 1.237437 0.375000 
-0.353553 1.237437 0.437500 
-0.353553 1.237437 0.500000 
-0.353553 1.237437 0.250000 
-0.353553 1.237437 0.312500 
-0.088388 1.370019 0.312500 
-0.088388 1.370019 0.250000 
-0.088388 1.370019 0.375000 
-0.353553 1.237437 0.125000 
-0.353553 1.237437 0.187500 
-0.353553 1.237437 0.062500 
-0.088388 1.370019 0.062500 
-0.088388 1.370019 0.000000 
-0.088388 1.370019 0.125000 
-0.530330 1.149049 0.000000 
-0.530330 1.149049 0.062500 
-0.530330 1.149049 0.125000 
-0.530330 1.149049 0.250000 
-0.530330 1.149049 0.312500 
-0.530330 1.149049 0.375000 
2.474874 0.176777 0.125000 
2.474874 0.176777 0.187500 
2.563262 0.132583 0.187500 
2.563262 0.132583 0.125000 
2.474874 0.176777 0.062500 
2.563262 0.132583 0.062500 
2.651650 0.088388 0.000000 
2.651650 0.088388 0.062500 
2.740039 0.044194 0.062500 
2.740039 0.044194 0.000000 
2.651650 0.088388 0.125000 
2.740039 0.044194 0.125000 
2.209709 0.309359 0.187500 
2.209709 0.309359 0.125000 
2.209709 0.309359 0.250000 
2.209709 0.309359 0.062500 
2.209709 0.309359 0.000000 
2.298097 0.265165 0.000000 
2.298097 0.265165 0.062500 
2.298097 0.265165 0.125000 
2.209709 0.309359 0.437500 
2.209709 0.309359 0.375000 
2.209709 0.309359 0.500000 
2.209709 0.309359 0.312500 
2.298097 0.265165 0.250000 
2.298097 0.265165 0.312500 
2.298097 0.265165 0.375000 
0.353553 -1.237437 0.125000 
0.353553 -1.237437 0.187500 
0.353553 -1.237437 0.062500 
0.088388 -1.370019 0.062500 
0.088388 -1.370019 0.000000 
0.088388 -1.370019 0.125000 
0.530330 -1.149049 0.000000 
0.530330 -1.149049 0.062500 
0.530330 -1.149049 0.125000 
0.530330 -1.149049 0.250000 
0.530330 -1.149049 0.312500 
0.530330 -1.149049 0.375000 
-2.474874 -0.176777 0.125000 
-2.474874 -0.176777 0.187500 
-2.563262 -0.132583 0.187500 
-2.563262 -0.132583 0.125000 
-2.474874 -0.176777 0.062500 
-2.563262 -0.132583 0.062500 
-2.651650 -0.088388 0.000000 
-2.651650 -0.088388 0.062500 
-2.740039 -0.044194 0.062500 
-2.740039 -0.044194 0.000000 
-2.651650 -0.088388 0.125000 
-2.740039 -0.044194 0.125000 
-2.209709 -0.309359 0.187500 
-2.209709 -0.309359 0.125000 
-2.209709 -0.309359 0.250000 
-2.209709 -0.309359 0.062500 
-2.209709 -0.309359 0.000000 
-2.298097 -0.265165 0.000000 
-2.298097 -0.265165 0.062500 
-2.298097 -0.265165 0.125000 
-2.209709 -0.309359 0.437500 
-2.209709 -0.309359 0.375000 
-2.209709 -0.309359 0.500000 
-2.209709 -0.309359 0.312500 
-2.298097 -0.265165 0.250000 
-2.298097 -0.265165 0.312500 
-2.298097 -0.265165 0.375000 
0.972272 -0.928078 1.000000 
0.883883 -0.972272 1.000000 
1.060660 -0.883883 1.000000 
0.795495 -1.016466 1.000000 
0.707107 -1.060660 1.000000 
1.325825 -0.751301 1.000000 
1.237437 -0.795495 1.000000 
1.414214 -0.707107 1.000000 
1.149049 -0.839689 1.000000 
0.265165 -1.281631 1.000000 
0.176777 -1.325825 1.000000 
0.353553 -1.237437 1.000000 
0.088388 -1.370019 1.000000 
-0.000000 -1.414214 1.000000 
0.618718 -1.104854 1.000000 
0.530330 -1.149049 1.000000 
0.441942 -1.193243 1.000000 
1.944544 0.441942 1.000000 
1.856155 0.486136 1.000000 
1.767767 0.530330 1.000000 
2.121320 0.353553 1.000000 
2.032932 0.397748 1.000000 
1.590990 0.618718 1.000000 
1.502602 0.662913 1.000000 
1.414214 0.707107 1.000000 
1.679379 0.574524 1.000000 
2.386485 -0.220971 1.000000 
2.298097 -0.265165 1.000000 
2.474874 -0.176777 1.000000 
2.209709 -0.309359 1.000000 
2.121320 -0.353553 1.000000 
2.651650 0.088388 1.000000 
2.563262 0.132583 1.000000 
2.474874 0.176777 1.000000 
2.740039 -0.044194 1.000000 
2.651650 -0.088388 1.000000 
2.828427 0.000000 1.000000 
2.740039 0.044194 1.000000 
2.563262 -0.132583 1.000000 
2.298097 0.265165 1.000000 
2.209709 0.309359 1.000000 
2.386485 0.220971 1.000000 
1.679379 -0.574524 1.000000 
1.590990 -0.618718 1.000000 
1.767767 -0.530330 1.000000 
1.502602 -0.662913 1.000000 
2.032932 -0.397748 1.000000 
1.944544 -0.441942 1.000000 
1.856155 -0.486136 1.000000 
0.530330 1.149049 1.000000 
0.441942 1.193243 1.000000 
0.353553 1.237437 1.000000 
0.707107 1.060660 1.000000 
0.618718 1.104854 1.000000 
0.176777 1.325825 1.000000 
0.088388 1.370019 1.000000 
-0.000000 1.414214 1.000000 
0.265165 1.281631 1.000000 
1.237437 0.795495 1.000000 
1.149049 0.839689 1.000000 
1.060660 0.883883 1.000000 
1.325825 0.751301 1.000000 
0.883883 0.972272 1.000000 
0.795495 1.016466 1.000000 
0.972272 0.928078 1.000000 
-1.856155 0.486136 -1.000000 
-1.944544 0.441942 -1.000000 
-1.767767 0.530330 -1.000000 
-2.032932 0.397748 -1.000000 
-2.121320 0.353553 -1.000000 
-1.502602 0.662913 -1.000000 
-1.590990 0.618718 -1.000000 
-1.414214 0.707107 -1.000000 
-1.679379 0.574524 -1.000000 
-2.563262 0.132583 -1.000000 
-2.651650 0.088388 -1.000000 
-2.474874 0.176777 -1.000000 
-2.828427 0.000000 -1.000000 
-2.740039 0.044194 -1.000000 
-2.209709 0.309359 -1.000000 
-2.298097 0.265165 -1.000000 
-2.386485 0.220971 -1.000000 
0.883883 0.972272 -1.000000 
0.972272 0.928078 -1.000000 
1.060660 0.883883 -1.000000 
0.707107 1.060660 -1.000000 
0.795495 1.016466 -1.000000 
1.237437 0.795495 -1.000000 
1.325825 0.751301 -1.000000 
1.414214 0.707107 -1.000000 
1.149049 0.839689 -1.000000 
-0.441942 1.193243 -1.000000 
-0.530330 1.149049 -1.000000 
-0.353553 1.237437 -1.000000 
-0.618718 1.104854 -1.000000 
-0.707107 1.060660 -1.000000 
0.176777 1.325825 -1.000000 
0.265165 1.281631 -1.000000 
0.353553 1.237437 -1.000000 
-0.088388 1.370019 -1.000000 
-0.176777 1.325825 -1.000000 
-0.000000 1.414214 -1.000000 
0.088388 1.370019 -1.000000 
-0.265165 1.281631 -1.000000 
0.530330 1.149049 -1.000000 
0.618718 1.104854 -1.000000 
0.441942 1.193243 -1.000000 
-1.149049 0.839689 -1.000000 
-1.237437 0.795495 -1.000000 
-1.060660 0.883883 -1.000000 
-1.325825 0.751301 -1.000000 
-0.795495 1.016466 -1.000000 
-0.883883 0.972272 -1.000000 
-0.972272 0.928078 -1.000000 
2.298097 0.265165 -1.000000 
2.386485 0.220971 -1.000000 
2.474874 0.176777 -1.000000 
2.121320 0.353553 -1.000000 
2.209709 0.309359 -1.000000 
2.651650 0.088388 -1.000000 
2.740039 0.044194 -1.000000 
2.828427 0.000000 -1.000000 
2.563262 0.132583 -1.000000 
1.590990 0.618718 -1.000000 
1.679379 0.574524 -1.000000 
1.767767 0.530330 -1.000000 
1.502602 0.662913 -1.000000 
1.944544 0.441942 -1.000000 
2.032932 0.397748 -1.000000 
1.856155 0.486136 -1.000000 
-1.856155 -0.486136 -1.000000 
-1.944544 -0.441942 -1.000000 
-1.767767 -0.530330 -1.000000 
-2.032932 -0.397748 -1.000000 
-2.121320 -0.353553 -1.000000 
-1.502602 -0.662913 -1.000000 
-1.590990 -0.618718 -1.000000 
-1.414214 -0.707107 -1.000000 
-1.679379 -0.574524 -1.000000 
-2.474874 -0.176777 -0.875000 
-2.474874 -0.176777 -0.812500 
-2.563262 -0.132583 -0.812500 
-2.563262 -0.132583 -0.875000 
-2.563262 -0.132583 -1.000000 
-2.651650 -0.088388 -1.000000 
-2.474874 -0.176777 -1.000000 
-2.474874 -0.176777 -0.937500 
-2.563262 -0.132583 -0.937500 
-2.563262 -0.132583 -1.000000 
-2.828427 0.000000 -1.000000 
-2.740039 -0.044194 -1.000000 
-2.651650 -0.088388 -1.000000 
-2.651650 -0.088388 -0.937500 
-2.740039 -0.044194 -0.937500 
-2.740039 -0.044194 -1.000000 
-2.651650 -0.088388 -0.875000 
-2.740039 -0.044194 -0.875000 
-2.209709 -0.309359 -0.812500 
-2.209709 -0.309359 -0.875000 
-2.209709 -0.309359 -0.750000 
-2.209709 -0.309359 -1.000000 
-2.298097 -0.265165 -1.000000 
-2.209709 -0.309359 -0.937500 
-2.209709 -0.309359 -1.000000 
-2.386485 -0.220971 -1.000000 
-2.474874 -0.176777 -1.000000 
-2.298097 -0.265165 -1.000000 
-2.298097 -0.265165 -0.937500 
-2.298097 -0.265165 -0.875000 
-2.209709 -0.309359 -0.562500 
-2.209709 -0.309359 -0.625000 
-2.209709 -0.309359 -0.500000 
-2.209709 -0.309359 -0.687500 
-2.298097 -0.265165 -0.750000 
-2.298097 -0.265165 -0.687500 
-2.298097 -0.265165 -0.625000 
-0.353553 -1.237437 -0.375000 
-0.353553 -1.237437 -0.312500 
-0.353553 -1.237437 -0.437500 
-0.530330 -1.149049 -0.500000 
-0.530330 -1.149049 -0.437500 
-0.530330 -1.149049 -0.375000 
-0.000000 -1.414214 -0.375000 
-0.000000 -1.414214 -0.312500 
-0.088388 -1.370019 -0.312500 
-0.088388 -1.370019 -0.375000 
-0.000000 -1.414214 -0.250000 
-0.088388 -1.370019 -0.250000 
-0.000000 -1.414214 -0.500000 
-0.000000 -1.414214 -0.437500 
-0.088388 -1.370019 -0.437500 
-0.088388 -1.370019 -0.500000 
-0.000000 -1.414214 -0.125000 
-0.000000 -1.414214 -0.062500 
-0.088388 -1.370019 -0.062500 
-0.088388 -1.370019 -0.125000 
-0.000000 -1.414214 0.000000 
-0.088388 -1.370019 0.000000 
-0.000000 -1.414214 -0.187500 
-0.088388 -1.370019 -0.187500 
-0.353553 -1.237437 -0.875000 
-0.353553 -1.237437 -0.812500 
-0.441942 -1.193243 -1.000000 
-0.530330 -1.149049 -1.000000 
-0.353553 -1.237437 -1.000000 
-0.353553 -1.237437 -0.937500 
-0.618718 -1.104854 -1.000000 
-0.707107 -1.060660 -1.000000 
-0.530330 -1.149049 -1.000000 
-0.530330 -1.149049 -0.937500 
-0.530330 -1.149049 -0.875000 
-0.000000 -1.414214 -0.875000 
-0.000000 -1.414214 -0.812500 
-0.088388 -1.370019 -0.812500 
-0.088388 -1.370019 -0.875000 
-0.000000 -1.414214 -0.750000 
-0.088388 -1.370019 -0.750000 
-0.088388 -1.370019 -1.000000 
-0.176777 -1.325825 -1.000000 
-0.000000 -1.414214 -1.000000 
-0.000000 -1.414214 -0.937500 
-0.088388 -1.370019 -0.937500 
-0.088388 -1.370019 -1.000000 
-0.265165 -1.281631 -1.000000 
-0.353553 -1.237437 -1.000000 
-0.000000 -1.414214 -0.625000 
-0.000000 -1.414214 -0.562500 
-0.088388 -1.370019 -0.562500 
-0.088388 -1.370019 -0.625000 
-0.000000 -1.414214 -0.687500 
-0.088388 -1.370019 -0.687500 
-1.149049 -0.839689 -1.000000 
-1.237437 -0.795495 -1.000000 
-1.060660 -0.883883 -1.000000 
-1.325825 -0.751301 -1.000000 
-0.795495 -1.016466 -1.000000 
-0.883883 -0.972272 -1.000000 
-0.972272 -0.928078 -1.000000 
-0.353553 -1.237437 0.625000 
-0.353553 -1.237437 0.687500 
-0.353553 -1.237437 0.562500 
-0.530330 -1.149049 0.500000 
-0.530330 -1.149049 0.562500 
-0.530330 -1.149049 0.625000 
-0.000000 -1.414214 0.625000 
-0.000000 -1.414214 0.687500 
-0.088388 -1.370019 0.687500 
-0.088388 -1.370019 0.625000 
-0.000000 -1.414214 0.750000 
-0.088388 -1.370019 0.750000 
-0.000000 -1.414214 0.500000 
-0.000000 -1.414214 0.562500 
-0.088388 -1.370019 0.562500 
-0.088388 -1.370019 0.500000 
-0.000000 -1.414214 0.875000 
-0.000000 -1.414214 0.937500 
-0.088388 -1.370019 0.937500 
-0.088388 -1.370019 0.875000 
-0.000000 -1.414214 1.000000 
-0.088388 -1.370019 1.000000 
-0.000000 -1.414214 0.812500 
-0.088388 -1.370019 0.812500 
-0.353553 -1.237437 0.125000 
-0.353553 -1.237437 0.187500 
-0.353553 -1.237437 0.062500 
-0.530330 -1.149049 0.000000 
-0.530330 -1.149049 0.062500 
-0.530330 -1.149049 0.125000 
-0.000000 -1.414214 0.125000 
-0.000000 -1.414214 0.187500 
-0.088388 -1.370019 0.187500 
-0.088388 -1.370019 0.125000 
-0.000000 -1.414214 0.250000 
-0.088388 -1.370019 0.250000 
-0.000000 -1.414214 0.062500 
-0.088388 -1.370019 0.062500 
-0.000000 -1.414214 0.375000 
-0.000000 -1.414214 0.437500 
-0.088388 -1.370019 0.437500 
-0.088388 -1.370019 0.375000 
-0.000000 -1.414214 0.312500 
-0.088388 -1.370019 0.312500 
0.972272 -0.928078 -1.000000 
0.883883 -0.972272 -1.000000 
1.060660 -0.883883 -1.000000 
0.795495 -1.016466 -1.000000 
0.707107 -1.060660 -1.000000 
1.325825 -0.751301 -1.000000 
1.237437 -0.795495 -1.000000 
1.414214 -0.707107 -1.000000 
1.149049 -0.839689 -1.000000 
0.353553 -1.237437 -0.875000 
0.353553 -1.237437 -0.812500 
0.265165 -1.281631 -1.000000 
0.176777 -1.325825 -1.000000 
0.353553 -1.237437 -1.000000 
0.353553 -1.237437 -0.937500 
0.088388 -1.370019 -1.000000 
-0.000000 -1.414214 -1.000000 
0.088388 -1.370019 -0.937500 
0.088388 -1.370019 -1.000000 
0.088388 -1.370019 -0.875000 
0.618718 -1.104854 -1.000000 
0.530330 -1.149049 -1.000000 
0.441942 -1.193243 -1.000000 
0.353553 -1.237437 -1.000000 
0.530330 -1.149049 -1.000000 
0.530330 -1.149049 -0.937500 
0.530330 -1.149049 -0.875000 
0.530330 -1.149049 -0.750000 
0.530330 -1.149049 -0.687500 
0.530330 -1.149049 -0.625000 
2.474874 -0.176777 -0.375000 
2.474874 -0.176777 -0.312500 
2.474874 -0.176777 -0.437500 
2.298097 -0.265165 -0.500000 
2.298097 -0.265165 -0.437500 
2.209709 -0.309359 -0.437500 
2.209709 -0.309359 -0.500000 
2.298097 -0.265165 -0.375000 
2.209709 -0.309359 -0.375000 
2.828427 0.000000 -0.375000 
